ply
format ascii 1.0
element vertex 701
property double x
property double y
property double z
property uchar red
property uchar green
property uchar blue
end_header
-2.5249160841054499 2.5232881081280496 0.6678885057980466 121 97 69
-2.6103360280102734 1.0087951852263937 1.3944958736300974 125 96 52
3.4886640922707528 -2.4115165607615827 -0.2854646892836589 23 10 4
3.2652830302193756 -1.6012109964242400 0.4293414576344908 55 38 18
-1.5423205858911848 2.3385149424631821 1.3647379733969454 166 146 122
0.9532281906937158 -0.3129570645325134 4.7415993577229960 176 177 181
-0.8107948908114989 -0.2609121911502607 4.6545328603582670 70 49 28
-0.7386125499639167 -1.2663132808363955 -3.5390355912425484 250 245 251
-5.2301447112356829 -2.2246793657920798 0.9055334549385401 162 142 117
-1.2714117212047436 -1.8582088397098049 -2.8234985707616413 254 254 254
-6.1346403422488880 2.2581908449669488 -7.0939179826471586 209 208 213
-3.4990021546280357 -1.8851666039390071 -3.7861719497718216 52 50 53
-0.8611916793567150 0.8788412170241161 3.0288645598126713 137 113 77
-4.9829720880067931 -1.2692124980801491 0.6616933298029491 255 140 149
2.2494028860251167 2.2874000970052739 1.8891405178314784 74 75 70
-1.0612901013854350 0.7932962184101378 4.2643405523476634 65 41 15
-5.0945058375507779 5.7460149858873164 1.0712378121311763 115 91 67
-1.3994878021851722 1.4973394479972841 -0.7267751540200071 77 68 71
1.2333192443562322 -1.1791187787548809 2.6713910863893870 83 73 63
10.3462632328484290 2.0824545158685774 3.3778351904346402 76 80 83
-5.1185414260903226 -1.9597953246327531 0.3404086217770445 122 95 78
2.7886722529587842 -0.5843457223323003 0.6045053928801368 70 49 30
-1.8588875477980404 0.8316818683539086 1.2466770379798382 159 146 112
-1.4125106350956014 2.0899587582554062 1.8479557629130312 133 116 106
-0.8572328563129136 0.8661046413441849 2.4064860252235833 88 59 61
-1.4121539915362973 2.6887376008996755 -1.0957878854257921 164 142 119
-3.2547721664107896 1.2584362776629174 2.3987515370990202 124 101 59
1.3438947513193238 2.2602103713917652 2.8338179419175793 101 75 48
1.7018713033764490 2.3293069938915827 2.3696963824956816 128 101 72
-3.3108128784529636 1.0497214857960395 2.2322092422463098 163 139 101
-1.3155416716777517 1.4161345766442073 2.2732297320718717 108 74 73
-0.8586120266216439 2.1925630846027468 4.3678855855333403 91 68 52
-0.8030566643291568 1.5452952355717688 4.3765238158149993 28 11 1
1.8879993708125011 2.3214366376980102 2.1537934270891044 160 144 128
3.7184471022382231 -0.6669267470720504 0.8413553227418172 44 39 43
-1.2389038021362624 1.1318169953948953 2.3606788922857218 113 85 74
-1.3858374692260345 1.9655833907383649 1.9625948375927575 17 6 10
-3.6580740066998207 0.7635035748718687 1.1707991465724406 143 142 148
2.8973473260709244 2.3667665307103873 2.4186909449172327 67 72 75
0.5852728475058470 -0.2530683226551654 3.9036072391516128 166 170 171
1.1667219088702874 2.7144799963124853 3.6437187897742764 97 76 59
-0.8323351901989313 0.7914892529294671 2.6427627944395033 135 112 70
-17.2248021941087082 17.6879397950302284 2.9086117612156270 49 31 17
-0.5205019751344896 1.6108539785487839 4.9855059278992426 56 54 55
-3.6100728080528097 -2.1029288662436070 1.6059939933273000 23 22 27
-0.3191015746006756 2.4317065984229180 3.5375496080917932 118 94 70
0.3986054999583797 1.4998363838824336 3.7729090707300088 151 152 156
1.9628225859929040 0.7705984541098407 -0.2666838768556345 84 59 39
-0.7183862045653029 2.1220881261556976 3.3922614124961123 89 67 44
0.5189413605172001 0.3830950555883797 -2.5884460917216767 225 229 238
8.1243254367369158 1.0745597470165169 4.0846575791262323 31 31 31
-0.7321958888252514 2.1364978448513101 3.2517716674504218 75 58 42
-0.8596691247602871 0.6275137498648798 0.4433567700898185 195 199 208
-4.2996288724894844 -2.7371456155037794 -3.3354400641829920 220 218 223
5.1747417685212733 -0.1624092350510945 3.7300775621432787 117 123 135
-1.6597218914544707 -1.6974417295756670 3.8841811699154385 255 240 236
-1.3288069413956372 2.2723999478338759 2.3697701351784568 53 40 23
-1.1559948498298738 1.9662959871357919 3.7496353006347447 43 33 24
-1.1931649290333060 1.8248781944512067 1.7930753195782880 39 29 20
-0.9810492859915901 2.0569272583985265 3.9793118038003743 68 52 37
-6.9769005904243047 -1.5812115560847384 -1.1238630982919195 146 137 138
-0.8683240175089618 2.0810120879918559 2.2599721475766055 130 112 98
-1.4398204809200186 1.8989905621199512 2.0099185190740805 77 51 50
-1.9425473261229862 2.3612740631420688 -0.4295692293753020 60 52 49
-1.5879228014944351 -2.3310265857535013 3.6233455660798572 43 30 24
-1.1868407535176211 -2.3829308565915390 0.0372462779092004 147 137 128
-4.2078472057496761 -4.3021205030372753 2.9627448503687948 117 108 99
0.9383900443311295 1.5465193246101643 -1.6386696744434972 213 217 226
0.6505122210027444 -0.2227236181312387 -1.7655248793967679 242 244 255
0.0232528355370319 5.9752794800108244 1.4090482891188028 81 72 75
-1.4797850786609668 2.1523150307816610 -2.7193167502343765 206 179 149
-1.1897380823422108 0.3429181232447250 1.2238194955161343 186 171 178
1.0882110390921671 2.4671830481881023 -1.4243243973782116 151 137 124
-0.5247980200847666 -1.9909429061746049 4.6047191531199720 61 35 18
-1.0289480078928750 0.8131283241848241 3.0745772564622480 18 8 0
-0.8636213871070942 0.2899984905040580 1.8192542857523226 64 59 63
-6.9383968418738782 -7.0485337183141716 5.2823349284996644 35 25 16
2.6533647237068778 -1.4086268418391150 0.1400193980018263 28 3 0
-4.2232264411543694 -2.3675783603201284 1.2929871497320164 37 41 44
1.4582081572490146 -1.6567701097364467 3.0871693017878363 76 53 37
-1.3627881437864320 -2.0426502951585506 3.8818374107017481 131 102 60
-2.1916692952974213 0.6216977402790008 2.8441118684833957 43 44 39
2.1386665399902971 -1.3145864227779844 -0.4295692149584419 127 109 95
3.6508822269201855 2.4483309553384762 3.1216593094459939 68 77 76
-1.3346693449413869 1.1249610483737726 2.3626705773041037 29 1 0
2.4278495676140737 2.3394909711312399 1.7956704944001847 78 84 82
4.9244253274608143 -3.0149958292894978 2.0438438476738874 78 61 51
-1.7696800464972737 -2.3215227390503732 -1.0275942203282535 236 234 235
2.9755229587755752 2.3927843084142735 2.1411056157893062 71 77 77
0.9745565962522134 -2.1211242826396712 -1.0234352574907304 99 88 82
-3.2878633750228752 -1.9672273394270838 -2.3230679808892094 221 220 225
1.9531162411290433 2.2856712087737914 2.1407478617409161 82 77 71
-0.9287485435182368 1.9712030621147967 1.5635133393721927 179 157 144
-3.9556262208333766 0.3038029898283033 -6.4585635288252128 167 162 168
-0.2521325634404157 0.2749237917158371 2.6582989563842196 102 78 54
-2.0538024018930550 -2.3327624059594472 3.0007999597316908 34 24 22
-0.7220924690105009 0.5008889025611901 1.6777629769147870 194 175 169
-1.4521649879953764 2.5255734122080971 -0.7165553267862227 92 72 48
0.4645336471501387 2.8189093885444154 4.0592365935993548 127 106 77
-0.7792094591002157 0.8124226492242670 1.9128894173542972 112 88 62
0.5814222205651748 0.0008804781502859 -1.7750344333127055 62 69 77
-8.9055246541306055 -1.4651083233660371 -2.6085603201115646 177 167 166
-1.0292805275405623 -3.2773088832087232 5.9479652488121211 52 29 15
-0.8522033973059884 2.2888069187530107 1.5182787976263257 231 218 225
-1.8009316068237602 1.5136714886022702 -0.8248659658584278 205 218 227
-1.2867311757444322 -2.3014475104108247 0.2291390869084206 153 144 147
-0.9778892344915622 2.3224339893933186 -0.8521776540459017 205 181 153
-0.7606851440717679 2.0327701143451438 2.2996501480762532 57 39 19
-1.3063164626557833 2.0951793779401515 2.0161126066093020 135 119 104
-2.5459712710144893 2.2207431756350839 1.6176533207464685 28 7 4
-1.0128414955118583 0.4691487812218323 1.3294738545226827 32 17 14
-0.7928772174629533 1.2153215435273410 1.8889815386974289 61 44 36
2.1412442875203812 0.8552329978184495 2.2258761201827859 84 66 46
0.9382909504278131 0.0368844625080970 -1.5494372893296178 68 69 73
-1.4395524357181322 0.7971943430305878 1.2757276087556926 32 11 8
-3.4232438373045335 0.4454799781909337 2.1920689595532106 110 110 110
1.4427660196355732 -0.9629250102268446 2.6167680643456919 128 106 95
-0.9369836345148227 0.3657016730120829 1.5228642231070550 197 183 196
-1.6371248562100311 0.5366650616992362 3.7602037165728368 65 53 37
2.8091321324577798 2.4016875245862765 2.0615522398461836 85 91 91
1.1776538428441905 -1.6491414499390022 2.5458264862326065 65 42 24
-1.8929079548278038 -0.0141931527003723 2.9668686066921861 26 26 18
0.4122231699784654 -2.4301540287295409 -0.3333562842701049 34 20 20
10.2756793116022163 1.4586885602496016 3.5780520438382717 83 87 96
3.2122844905429826 -1.6053475471021943 0.7142743483387491 73 55 45
-2.2866617801420728 -2.3485914757286102 3.6440224455079302 151 148 139
-3.3826349091100836 0.4117825592741898 2.0661745764817838 86 87 81
-2.8881880219792322 1.0654112621040821 1.1625094041633146 40 37 32
-3.4931406394585078 1.0341995119808531 2.1189179108330460 139 113 78
-0.9476443798913642 1.0492914180119666 2.5279368043273678 23 6 0
-1.2334148666975102 0.4316439032240331 1.2067597780043500 114 82 71
1.6715191547115562 -0.7035780998610148 2.6613988074887258 120 93 74
-1.6502111040119192 -2.4215176987856997 2.0864457450647458 42 29 23
2.1985360556090465 -1.5264193394642966 -0.3149940374852314 47 36 40
-1.1206852233834892 -0.7205412742398407 3.9489781580640968 152 147 143
2.6693760640316366 2.3418023881630572 1.6080999881287168 95 104 101
1.3369509820397647 -1.5991176837749026 2.6169662046859470 42 19 5
3.7533851014660073 2.4156452054244966 2.0801968447516979 93 99 99
-0.9680971172672835 0.7198475167739552 3.0542698766322021 30 33 42
-2.1441067297478340 -1.8823946905514792 2.9538520694848791 23 18 12
-4.6923201812530930 -2.2931276022029672 0.4072920635112408 178 172 182
2.3056992791284987 -0.0694623177871615 -0.7167250652568938 92 67 47
-3.0770720171777293 1.9205582722361307 2.1215462024820009 122 106 90
4.2257056912369793 -1.8648435514013861 1.8186715861945342 76 78 91
3.8003323289580409 2.3707326539542302 2.3586139236590302 95 101 101
-1.1086287441979787 0.3665645825762904 4.8604285071370485 92 83 78
1.5993183748948419 0.2675567413889648 -1.1453461947323935 200 204 215
2.7504977008189604 1.4758967458691195 -0.0646727639342706 64 40 16
3.8022161988758327 1.7408265061873975 1.2582475149520158 55 64 63
2.4205967794788106 2.2919344402104009 2.3584139580265138 64 70 70
-2.9892091078182403 -1.7657701956879734 2.4140625266789941 130 130 122
0.8851038142952996 -1.5720884055324575 3.0990313533108598 134 124 122
2.2037476490264978 -1.4275952572890784 1.9974096615742492 18 13 10
2.8510195675811554 2.4250534061880615 1.0876109310149813 145 133 119
-2.2037230936316536 0.6357804176353351 2.8187594847669568 42 40 51
-1.0310498523328497 0.6967411641432781 4.1438232308550980 28 12 0
5.0454639841927404 2.4619437864262599 3.2806874868630391 90 96 96
-1.8819755685521500 2.1495625321579883 1.9352336991836177 15 2 0
-1.2044194828312262 0.3948754401231786 1.5400084649698689 132 113 117
-1.4251467627712260 1.5249152593296456 -0.7568884978571698 74 63 61
-6.3951624220212411 -2.0426824043796556 -0.4857922591245998 92 74 62
-1.4194882566957827 -2.2192914891177331 -3.0762615390996459 186 181 187
2.6395063262797911 2.3315112380646101 2.6776635997676919 50 56 56
2.6745842029423263 -0.0166324528063112 0.3016973007466897 82 57 37
2.5476102760443333 -1.5661539998881591 -0.6539178704217977 199 174 154
2.4961097309251468 -0.0582546592480028 -0.6418661224543821 103 78 56
0.8559618299474618 0.1442753641276188 -2.0396950462640255 148 152 155
-1.2142220408168525 0.7807313183687724 4.2414091713828075 54 45 40
3.8192134812078931 3.3225297250803938 1.5164894458461819 89 95 93
-0.9557923664546926 -1.9971473637989647 3.0442535819482313 199 194 198
4.4648884322164042 2.1278449832349478 3.9143373255747353 116 131 152
1.5658539643087661 0.3843646857504215 -0.3347405761968578 105 85 74
-1.2679961044006389 2.0153877379382155 2.0501206932848266 16 5 1
-2.6094110609989585 -2.4142493532562952 1.3715844888667166 146 135 129
-1.1773088930316173 0.6739843777402867 3.8431686208692719 22 22 20
-2.3560204118265684 1.0631783300861253 3.0624073082736403 115 96 63
-1.6069886017728143 14.4295265457838990 1.8081554030955529 8 11 18
1.7271540823933096 0.4253556311319678 -0.7133575766248881 185 189 198
-3.5659133696578458 1.1094631139121647 2.0680170759689651 166 140 105
-2.4454801000338380 2.3365701809745127 1.0729771617829551 134 108 81
3.5382345931804058 2.4482662604674017 1.3108589731865423 63 69 69
-2.5082450742562599 0.8642826779300276 1.2993195876735091 153 143 107
0.7471579835575830 -1.5732179084195217 -0.7745587416615872 195 186 181
-1.9457593495058314 -0.0054386922186873 3.7770427462227523 16 5 9
2.0800736449846777 2.2240874975548262 2.2923793745541499 51 55 54
-0.7946878912311419 -0.1073406509047818 4.5549149384218648 91 77 74
-1.0521480261522131 -1.0903467630275792 -3.3837692424795009 249 244 250
-4.0305093099278553 -1.9450056752467362 1.3120721687011905 46 45 43
4.6127337965458564 2.4520721881029330 2.4949692646448041 89 98 97
0.3967512478008782 1.9577818489256880 2.3123040224205331 150 128 104
-1.0903542011890950 0.6694596672040320 3.2087760202681257 212 208 223
-1.4505866832881926 2.2307633251366363 1.9184653781508787 172 159 143
-3.1948802809186612 2.1679732203915520 2.2839794570295129 143 131 117
-1.4052110822122217 1.6661407245990620 1.7835762255908147 118 100 80
-5.5265766174807345 1.7227845359729628 -4.8675066207362248 211 201 202
-1.4664619939666059 -1.7981227552688190 -2.9447385480507977 214 209 206
-0.1959079661627849 4.2273564513807882 0.9663424235418406 65 39 22
3.1445463232892337 2.5814497099140765 1.4823225463676744 82 87 90
-1.4374479955869255 0.5781689598856384 3.9920628004283123 144 141 150
1.9488648562161344 0.7506440080679698 -0.2512836472167713 91 65 38
2.2548269130773844 1.3373298209855122 1.3008628720411435 67 73 73
1.5981728640298947 -1.7184272396215914 2.5181973248670810 87 62 42
-0.8498494645998114 3.6552320344092109 3.2462747074404046 93 72 45
2.9056587464472838 -2.0463510648505059 0.9698529609612362 73 50 34
-2.5944163849286381 -1.8975770935629472 2.6439322231284410 28 24 15
1.6527168340137455 2.3212502470712626 2.1026630775047117 139 114 92
-1.7976650447968427 2.5079793548704883 -1.2812762901895673 165 171 169
2.9859701912397254 2.3879245264557665 2.0835133284460046 94 100 100
-0.4451029381128884 -1.1282393773111061 -3.3296753175320264 233 242 249
4.2352656404017877 1.7640627478761941 4.1300890525059941 93 107 120
-3.8714982698778773 2.1550829211436118 2.2430162249050247 18 5 0
3.6038258604830093 2.2411549952198739 3.8864912677267012 59 65 65
-0.9880169873643155 1.5621333944780293 2.1619719847073080 131 118 109
-3.6521590743130390 -2.0635137446503715 1.7675669934794895 43 42 38
1.4962949902453671 -0.1627874322956187 2.3989907182141330 123 92 64
-2.2964431826264105 -2.1819164582421338 -0.0974115922096705 223 224 229
-8.0348539023779466 2.5094625637379022 -1.9630603228287316 181 182 177
-1.5619277971340395 0.2721742543036684 3.3888552293302547 45 40 34
-3.2649181588812191 2.1708967340217415 1.6692322295759323 98 77 56
3.1610625137367752 2.3542185904726440 2.6041109752607876 59 64 67
-1.0338764728795935 0.6005608245640291 1.4936560171965600 72 42 40
-6.8901664439003154 1.8501847826894142 -3.7760826033314077 204 177 158
1.1938809699296016 2.2838670945145978 2.9627411004437456 55 29 2
2.6810504364049681 2.5122454827689400 2.0731971244536918 87 89 86
2.8869336839898248 1.1450078255213090 0.6156713437804876 54 33 12
-1.3932752575720526 -1.3427885148483798 4.1410723295842153 196 198 197
-1.2675217137987909 0.3382241625346211 1.3350444552778602 221 219 220
8.6881029015447293 1.9619356902459115 4.0650004244262981 56 66 67
7.5079934833892539 -0.2664406884005806 4.2092198723502046 49 63 76
-2.7035813261089454 0.8640165695017019 0.4231931573424968 52 58 70
-0.9728536770944576 0.4658026966167864 1.7850016556132595 101 61 49
-0.9085986200866247 0.9788317736008425 2.0003598830091747 54 34 35
3.5868474275219251 2.3800264946139240 1.9065608926942943 73 79 79
-5.8383751983364398 1.8471883413789776 -8.4231005695961105 118 116 119
10.9739035740351216 2.0636315803771415 1.8025097033412356 68 69 73
-1.2377940143126345 2.3580635598078183 -0.7260309531427620 132 112 88
-1.3531812731262951 2.1539288347274335 1.9161218528875701 52 50 53
-3.7358819800458600 -1.8970723473951032 1.3029277550978968 74 71 62
-0.9004085629397184 -0.5114257012195708 2.5753186520839964 12 7 1
-1.9889500367283788 -2.3076840846958908 -0.8648955057764497 199 199 207
1.7198362920332160 -1.1477712473448878 -0.7054341354475404 213 209 208
1.6552452432896820 2.3025289294669666 -0.5372249113852278 144 118 93
3.0793738998862268 1.9106975996859921 0.7787328046749390 65 52 44
-1.2274969929787989 0.5246123444114630 4.2142087106258987 49 34 31
-3.2765637240708325 -1.8456474117220210 -4.4680473886687917 136 125 119
-2.4554088299945911 -1.6271366502408104 5.3081652115626508 108 78 50
-2.5187890186777557 2.1082300095005442 1.5748779864574802 159 137 124
-0.6977252988249789 0.9637383678020789 3.1918803276738332 68 49 19
0.6178319485117807 0.1470955828467276 -1.7714366984988876 65 69 72
-0.4388457159894678 -0.5893204848098917 4.7921015110062291 150 147 142
-3.2497233303052355 0.3885320033966118 -4.8125156892157639 195 194 199
4.0390235074256999 2.2658862478681145 3.8287720625278232 23 27 36
0.6310064350495626 -1.9679545603732551 -0.3480944519484259 44 29 22
-1.7762256683694202 -1.4323849852565584 1.7095776112832912 86 77 68
1.8485092039367221 1.5194793043179211 2.1902386628310770 118 89 59
-0.8094697269576593 1.1039422891773356 1.9306508073260993 58 47 45
-1.4690976315397364 -2.2948664122346005 3.4914331896931099 55 46 37
-1.4720939719520176 0.7009647080739452 3.7061887641098403 64 66 65
1.7270831937223701 0.7891776151849241 0.4386614357585178 98 68 42
3.8508044042785139 2.4001434941051980 2.1326476889860184 83 89 89
-0.5312124071666051 2.2952377129790111 1.2543620082803306 200 179 152
-0.9951131397050315 -0.5442932060563961 3.9661773619666474 53 32 13
-0.2122203792545940 0.0451943551309341 2.5793564984649300 160 143 117
-3.1572394045770760 1.3713282503664437 2.4843480448810320 151 123 75
1.0244916897742233 2.6724734017105076 -1.6805512974176398 36 17 3
-0.3725553115783912 0.7885709469133234 2.0521200675629632 10 6 5
-1.3081759916574398 1.5731698941730436 -0.8002215199038795 109 100 95
-0.4346210643230072 0.8417003935648001 3.0987837212530742 111 100 80
-1.4883240852893578 0.6757671645905999 3.4853699204433304 238 239 241
-2.8849948484075529 1.7169795655359479 2.1796941500829523 23 6 0
-7.7985984399399699 -0.1995185313917217 -3.4777024031833141 19 28 35
2.7549204277565367 -3.4916960531857151 2.1264127129915464 68 49 35
-1.5615725603691049 0.6896912161945932 3.4609327454201924 35 32 25
2.9661100657724271 2.3787681441785375 2.1305906830611328 70 76 76
-0.3786845939834993 0.2693997112702666 4.5411829322350474 127 128 132
-3.8519072619417787 1.8375172537951883 2.1308594943454326 161 137 99
-0.0349558135899114 2.1528799469608790 -2.2846442851305744 113 89 61
0.0764112775853011 -2.2554189088514813 4.1109706161138595 70 48 34
2.9066136044557429 2.3625559307759851 2.2074161634863740 65 71 71
2.1568399756369323 -1.6875232958581889 -0.9378223932967482 117 90 61
-0.4936883719661516 2.1807992904326206 3.2725958919888942 95 71 45
-0.8839315719366611 0.8032341921876919 2.8630793973902335 123 101 60
2.2032034459516705 -1.1475466153636247 -0.4065942709805091 136 111 81
0.8985726573181509 0.4932561145300542 -1.7049237817556080 196 199 208
-2.1257213679410341 0.9057117188092850 1.2801088046884370 159 146 112
-0.6553338911701942 1.0171867661956273 4.4558541361639605 77 56 35
-0.4967526198111262 -0.2398049992391869 2.2706060621657436 45 41 30
1.8300419565316364 -1.5098615257588601 2.0147538701114724 39 21 9
-4.0635513308636195 1.8438208192904482 1.5586276412645030 37 32 29
4.8481560547137112 2.3388333183657095 3.6090747374386343 48 47 45
-0.8134623627683771 1.0728514182014028 1.9239391958359620 13 0 16
-1.6272622475256524 -1.4792423704361568 2.2375914724460002 24 11 3
-5.2862350863287242 2.1894613056455232 -4.2564604160400661 236 236 246
-2.5941745637317291 -2.0685830398360645 2.6288998781837138 19 15 6
0.3978340934812888 0.4839408609511653 1.2256391935891671 23 12 8
-0.3431849688531842 1.9644025406390677 3.9427051034981058 89 65 39
3.5619896382309175 2.3669020198760156 2.1497874606603040 90 96 96
3.4580150323370091 2.2413067673549154 2.5884295509850048 89 95 95
-0.4634987835939652 0.8873257325009651 4.8190692225614189 107 105 108
2.9154770900106786 -0.0252481707145887 0.5029678330856848 74 49 29
-1.1834107870164856 -3.7113963952135589 4.2599542923405371 121 115 115
-2.5790683330594182 1.3371186692901758 1.9613190918043477 43 34 25
0.5386483041456326 -2.1022628793800773 3.6817951594499898 75 60 53
-2.1873182306710377 2.2556929144588804 0.6708302964055208 141 115 88
3.0029824824342732 -0.0822019465064113 0.4919752944450702 50 29 8
-1.7477007033561189 2.2311368468727735 -1.7307088409801563 192 176 142
-0.2589786732992653 -0.0697049269715552 2.5581752824596204 117 117 105
-2.0670216701367936 2.4208956688446599 0.7070621425805298 165 137 113
5.2948537248281227 2.3139602597566045 2.5776315898129298 99 105 105
-4.1587228287054065 1.6414703183704358 -1.3805122527417260 142 150 152
-5.6020164017991334 1.4918851617318400 -0.6719382756888357 63 45 33
-1.9767407436865789 1.1187532511975420 3.8866152144357660 87 59 20
-0.8539053289779757 0.7761126285384700 1.5378635272923542 112 101 95
7.4732675869330443 1.6230080517847025 0.8720954253352854 61 56 50
1.2858138081105375 -1.9328967198250200 2.7556487675397774 50 27 11
-8.9814558035588732 0.3535838844655999 -2.7182454647307548 82 73 74
2.4614730697622211 2.3533904275658868 1.9818776959607083 93 102 99
-0.2099837015873343 -2.3212329021787839 0.6839866073738393 42 24 14
-2.9675813026438909 0.9371081848082726 0.7585291875913374 53 53 63
2.5900627186263474 2.4476311775664641 1.7952973144752720 96 102 102
-0.4616451783575477 0.0795641052038356 4.6421721651313472 108 92 92
-2.4254145978349246 0.6607564074425032 2.7899389826223242 223 224 228
-2.0548154718466836 0.7990372805519164 2.8528981157567466 84 72 48
-1.0532565593083607 0.9600454120300401 1.6100379886437810 35 9 8
-3.3735336262841193 1.9329820583171349 2.0752887659925694 106 99 93
2.1172462038171194 2.7158195746232319 2.2463178266609929 76 67 58
-1.8457792366864620 -2.0931655056709095 2.9484824413602322 15 11 2
-0.5869119737614944 1.0435046570305668 3.3476785741618684 154 134 99
4.8508972046476302 -1.8499705707309873 1.7710460801935828 111 116 120
-0.7770191531048645 1.1634303891465521 3.2011045289573317 24 6 2
-3.1070540968437572 2.1610214873646152 2.3148804021485163 21 3 1
-2.1329112148520561 0.7802593749833666 2.8657077465142278 18 12 12
2.9439814666610085 2.3804632829264567 2.0056696864993731 65 71 71
-0.3420082538137154 2.2146471569478448 4.3749422639059228 87 65 41
-3.9080438443829202 -1.8477709981831554 1.3392486378610027 60 59 57
-1.3195402679683819 0.7917888619603592 3.2643751905066347 83 105 102
-1.3720201971122457 1.0603044297845825 1.3516646741886029 36 15 10
0.9042169231243029 1.5021043739393338 -1.6239024267382527 160 168 179
-3.6740002135551038 0.7300669974597274 1.7293383639510203 49 50 42
1.0700592486434914 0.1298537603954563 -1.9991265085603152 169 174 178
-0.2031787525736741 0.6111043524339922 2.6309517432310252 76 57 42
-4.2831048961491343 1.5851680814527145 1.8163610241804993 39 33 33
-1.9486159021457032 2.1617085215788556 1.9582713052605625 44 22 9
-0.6436765038794656 1.9166431797242596 4.6567618653863105 30 22 20
-3.1174544359509917 1.4968196314447684 2.3181896945012044 117 87 49
-2.0075540584656872 1.9057258160542216 3.8598011871562106 33 25 22
-1.3615438708137975 2.3111042248807396 -0.2650889377138758 125 102 84
0.0690165356577708 -2.2829106769813459 4.7657258900616961 104 80 54
2.0422830165924788 -2.0043510423073574 1.6883606330410015 37 19 9
-5.1486076521939879 2.8477067240446940 -4.1659246708919095 235 243 246
1.4055265019235383 2.2255249747038839 0.9939782610210111 28 32 43
-2.5713187516554070 1.0357441861128174 1.8389520459901547 138 108 70
0.6423580278565622 0.3347423632010982 -1.8020567869469133 229 238 247
-1.1361063496418407 -1.9120275655100902 3.2710847671646945 146 138 135
5.4129320764804447 -14.1867784681103632 7.6057963421480075 66 45 28
-1.7921944864525903 -4.9322258620587167 -0.4102054652278774 145 132 124
-0.4898651014787938 -1.8570771173784681 -3.5716203383437324 139 120 106
-0.9972381889915702 1.0006408052366642 2.6787954478647373 101 73 34
3.9545132597664390 2.4250914586158618 3.0242397426256251 63 68 71
1.9972234058553078 -1.5095249905665631 -1.6796287034943698 221 214 208
2.8545510371982705 -1.7865510309221981 -0.0900881503012405 67 46 27
-1.4419172705412253 -2.3323039727413022 3.4111191130523517 91 82 73
-3.3769146861132988 2.0234933329424543 2.1188176275852677 11 4 0
1.7160958461972589 -1.3731894860028280 1.9432737824160060 75 53 40
-2.0628506503641932 1.7733684733803212 3.6879651888968787 35 30 27
-5.3998021753146421 1.3605064543767833 -3.9505867006193176 98 78 80
0.0444191392409257 2.3741524073148792 4.2353928493270008 131 109 85
-8.2376572011336808 -3.5698890352229649 -2.5994249429416967 193 187 191
-1.1166750715617375 1.3536118185573129 2.4244839027384573 17 4 0
-0.5920315181111179 -1.9429121651869821 0.9638569583266383 45 31 22
2.6970116461402562 1.0570444203430682 0.4322121287421485 68 43 21
1.0009493849665470 2.5122996288629142 -1.1848233344826529 90 98 101
-4.2830632152072567 -1.0700106356871320 0.6885585691529792 255 133 134
1.0309433849860705 0.6794333777224986 1.8725354518951782 17 18 13
0.6260122572455979 -2.3829337106373987 3.5716792393256638 65 49 34
-2.3915949312977167 0.6407804371758581 2.8090604830852688 221 222 226
-0.9319505817665930 1.0972588908750731 1.8662770150507706 191 168 162
-1.1495805571073463 0.6911591505209703 3.6365776363921434 196 217 218
1.1233133989940258 2.4997514006646235 -1.1645165063481222 75 73 76
-1.4531582343146452 1.2120345602661264 -1.5307729876497269 171 142 112
-3.6703680689602840 2.2029510999372746 2.6724470436198562 99 61 60
-1.0094892980897021 1.2222194032180405 -3.1720746678699356 244 249 255
0.3456660162332221 2.4341891368283566 4.4800006206035095 45 22 6
-1.0141268041211049 2.1424042663017460 3.9053505681623424 63 40 22
-0.9850289276606439 1.3222177810951989 1.8207901539379909 165 153 153
1.9433541933968494 -1.2195803861905261 -0.4914573024316393 138 117 100
-1.3953475527524968 3.0120079962871418 2.3117501130298810 81 75 61
-1.4690920139286392 -0.2520300557656660 4.1282196738373322 129 130 134
-1.7387232268852886 -1.6271984624245928 3.6921672293840655 152 137 118
-8.3823526130593979 -1.3679898663415344 -2.0901091554989217 194 200 196
2.1622581130920451 -1.3780068127327152 -0.6506336054570223 116 90 73
2.2036704215557088 -2.9797006984785539 5.3542387163932261 160 139 144
-1.3474320831237672 -2.1098016071474248 3.0536224923345761 46 37 30
10.7512924459706927 2.4195579132094078 3.0295986931170185 9 10 12
-2.6346264341397574 2.2958574382920154 1.0290040923260169 126 106 81
-6.1885128609046411 -2.2228101407563212 -7.5145082737414546 137 128 129
-1.5430388759312001 0.0791348151176881 4.0954269249573860 147 147 147
-1.3923316399361101 2.3317799757280651 2.4170383546836440 55 40 21
-2.2084078940144960 2.2359886164689851 0.8530327996671895 130 107 76
-1.2680839160625919 2.2032359116434970 1.9765738642740842 72 54 32
0.1366569704657975 2.2664370674217436 1.2215045486016531 189 164 134
7.0552499258962396 -3.3568619606223935 0.4659548363486911 14 6 3
-1.5851322962032777 -2.2742243377297293 3.4502355373339926 24 14 5
1.3692722022077339 17.1161678242837851 1.2516357446148629 0 2 11
3.7635104634794896 2.4170818889325427 1.7559211241258168 74 83 82
-6.3361744038316603 1.3899977815995872 -3.4447194371312353 189 164 144
-3.5785689243037577 -2.2662532015524630 -0.7636784213960135 222 222 232
-0.2532983723792741 2.4306297193401663 3.3533056538144921 98 74 48
2.4764252488264855 -1.2354836631664441 1.6793639748714813 19 10 5
-0.9681414391483157 0.2030239844260472 3.5701483635932858 85 64 43
0.2632676314919626 0.1371270845178271 -2.0701416651883489 255 255 251
2.5861543572294705 -1.8295690315569979 1.0926158005897224 75 56 42
-3.6767199963611827 1.5166736749882828 -2.2558667011630127 203 193 184
-0.7377776376432567 1.3080316433312071 2.2884392471494195 255 252 249
-3.4318618377770789 1.3842640586445834 2.0539179729444568 167 138 94
1.6919225301444569 2.3957383405326014 -0.3855361745927288 92 68 42
-1.7647564958386537 1.7395023710760888 3.4706594907297550 36 26 25
-1.6563255252485023 1.7656721738490946 -0.4517773463184567 46 42 33
-2.7050732508647926 -1.1869945748699944 2.7523282262002109 69 62 52
-0.6689128759457434 0.3437221069196011 4.4060158383780514 93 69 45
-2.5823374636664034 1.1274739647133807 2.9764171484766031 123 95 56
-0.4087183397058750 -0.9522743853653707 2.0467750163197893 28 15 6
-1.5413042144666926 2.3943882833461565 -0.7321745805935248 29 10 12
-0.3415768735454998 -0.1908903551621450 1.9132597593229961 117 95 81
-1.1738488972518644 7.1352149270409946 5.0885746437197028 103 79 53
-1.8995728053806882 0.0954284568500768 4.4233867766052430 78 56 42
-2.0775736469629709 -2.2591278047956038 2.9980547376199596 17 8 1
-3.0229116918584529 2.2537756516655341 1.9058986522716166 167 145 134
-1.6547783187617955 3.1438645860779477 -0.6864786464734699 187 163 135
0.1468375655634005 -0.2613289599533619 2.5271599786478776 111 86 66
-1.6259569198035717 -1.8530094354377509 3.9163664042949202 195 178 162
-1.0582144862918945 0.0683854853077238 4.3757634738310021 109 99 74
0.7444575996642155 -1.7774347174107923 3.6150099239469040 151 141 139
1.0368780900040884 -3.6351294274933887 -3.8903583372241459 77 54 46
-1.0348511587693368 -2.3257900090104520 3.4649052009623564 178 172 174
1.9757980312374805 -1.0201464746670228 -0.4733038242438672 109 82 55
0.6621988691572089 -4.7870744194737735 6.2953913275259339 120 99 82
-3.4295586390067849 -1.6860998230608220 -1.0801247252577755 201 202 207
3.3724167108137704 2.5178688185751485 1.9193463178041261 91 97 95
-1.0738438256166833 -0.4792844751562453 4.0945754923026625 85 69 56
-3.1368387666686428 -2.4672413441803176 2.3988370006786153 34 25 18
-2.4810028635445307 -1.7583523160686589 2.8832100981562752 96 93 84
0.8552689968588416 -1.9709576513242282 3.2494010685812111 89 68 47
0.8121494583185719 0.4946076911217185 -1.4615412159302379 192 192 204
-0.5780232423392053 -0.0889713884288695 4.6630912201090347 25 12 3
0.4027490146864608 -2.8060699110638767 3.7402820739495626 38 24 15
0.1271672042388061 -2.3332380942818682 3.9344226791535362 41 19 5
2.0676217786907545 2.2780558248628853 0.1306399878452252 72 46 19
-0.1514415589562332 0.0672040539309940 2.4956230204172267 153 136 118
1.7774573647637613 0.7254753247837555 -0.4296949979576192 83 61 22
-0.3163388912732680 -1.8357323580208793 4.5261918170075788 76 57 43
3.1281143453117428 2.4669811446601071 2.9335850303899411 75 84 83
-0.6798665262210812 0.5468716699905424 1.6853949531763377 95 71 45
-1.3284013663099496 2.5121479641994724 1.9891513510586301 109 85 57
1.9425294994927669 -1.3676707652697224 2.0896687101025231 88 63 43
-1.9181411880465946 -0.0915844149026375 2.9702065137208971 192 187 181
3.3193705764674659 -2.2201905505445736 0.3205858536235086 25 11 2
-0.8639098620188383 0.3491186351033350 4.6449013776620784 91 78 62
-2.2084071962782130 0.8786833168897308 3.0581352962170736 113 90 59
4.1013489480063070 -0.6860144088952324 1.0380213222128207 28 27 33
-1.4980828320557360 1.0894289396877401 1.3484658059323531 74 54 43
-0.3039831017144018 3.2293503311884284 3.5971506977538987 88 64 38
0.2083327069625950 -1.8734676723569599 3.8942150980743482 106 83 67
-2.5790389843587866 1.0893833106366990 0.1598626737417046 56 58 70
-2.6393388797398853 -1.9531293441744710 2.6517206993382514 32 29 22
3.7274768862559364 2.4365662962424084 2.1033515135298835 92 98 98
2.8591908898898977 -1.3491539933777090 1.6206044225841141 21 19 22
3.4742524328099287 2.0766928173823089 0.9294910987417084 32 20 20
1.4811603296030291 -1.3199118747696137 2.5285778818963220 81 53 31
2.8031614639071996 2.4023672602564350 1.3967087420233690 78 84 82
-0.7789328945743071 0.8851053321550871 3.4743504777933780 103 79 55
4.1245825572853674 2.4068254084994343 1.5171966911604697 81 87 87
-7.4351561396459420 -1.2864899076890124 -1.8008846548084450 236 234 235
1.6496443970962855 0.9264459689220449 2.3535144558733152 102 67 39
2.2265930946361943 2.4150977636726600 2.0891551905794064 100 99 97
-0.6512513094367102 -0.9124017064430072 4.5249315517451718 78 58 47
3.0350071513870911 2.3679625190586564 1.7126121825876153 69 75 75
-3.1359648656308088 1.9151823182005716 2.1003615283600525 22 13 8
-3.0833219161037380 2.1026748115630496 2.4444378829000177 126 105 88
1.8152317232978121 2.1305556672335393 2.1964857377325058 94 70 44
2.3915490453641843 2.4572544471112434 2.4419182762333800 64 70 70
3.0824567814226285 -0.1122405076932219 -0.3159889413162081 82 56 33
-2.9602991630411415 0.9475723264379351 1.7566100661177162 144 120 84
-4.6459409159228651 -3.9702750375196261 0.5426499922059552 95 85 86
-6.4865965128524881 1.9146068777704168 -4.6145889393170743 170 145 123
2.5666954514480462 -0.0200488548633444 0.2109399581509086 76 51 29
-1.6253062191449519 -1.1266305364517246 1.8889021000228194 20 19 14
1.1662099155570360 2.4343108781934619 -1.0903999117879033 75 74 72
-3.5889556826759046 2.8096569659827368 -5.3660814734461839 201 174 147
1.9786202620250031 2.2243059501810816 -0.5432585993808724 97 66 38
-0.3299251808085995 2.1965172829532627 3.2040696232176034 124 100 74
1.1516626634852818 2.5734168827618609 -1.4517765667641305 185 173 161
-1.4392363863121083 2.2829761458817894 -0.7109683009601551 153 138 131
-0.6916792675574933 0.6898681945723547 1.7352773532493493 29 9 0
1.8917899010426571 2.4528838162852260 -0.3016728657594749 93 67 40
-1.4476966787711338 2.1779320241397162 1.5087490989572512 188 171 164
-1.2397838386274331 2.2912968148929913 -0.9074382773465780 170 146 118
6.1515091279223828 1.9208387197649930 2.8833743566291989 74 74 74
-1.9677126342988254 -1.3660656384319056 3.5485218225548323 97 95 82
-1.2287841413331764 0.3979832949941203 1.1650029765679268 73 35 32
-0.1874840759223328 0.7364945651485931 4.4237635012014742 147 152 155
1.0364637266419696 -1.1247669865666368 2.9456274189351315 199 190 191
-0.9868724528399169 2.0715656695130304 2.0617060860668350 67 49 27
-0.1724201995877973 0.0901182344126980 2.4920219144637028 60 36 32
-0.6540297761632680 -1.6788918231893155 4.0997616224651940 62 35 16
-0.2337150595796799 1.7247162559047156 4.4339126158272837 25 14 8
2.6546684024905742 0.0029869229742775 0.5578920120596184 74 51 33
-0.6787848163027569 0.8537019155693171 3.2097999811651894 92 76 40
-2.9158369612319177 1.1584332935445043 2.5939366882341206 127 100 57
-9.4289924779253020 1.5371579271039226 -6.3812094537761812 21 23 22
1.7841039477526961 2.3659548179241416 -0.5969600449708800 90 64 39
-2.0004511767088222 0.5050893963543914 3.2184785207243891 18 17 12
4.8362318614091198 -1.3562413948341818 2.9469407816468509 60 63 70
-3.2055145398785285 -3.7853104932389749 -0.7270174371994435 243 242 247
-1.4069628713051832 -2.0267981975127851 -3.0436690085405074 255 255 255
3.3238197226469630 2.4397348816939695 1.9685601927781586 68 74 74
-4.7770214970019573 -2.7739226782992290 -3.8168016548810293 209 210 214
1.6853403978921528 1.7885944027382399 -0.5708327263584116 186 177 178
0.4698674820961299 -2.2990727458248141 -0.4163374644050354 167 154 146
-2.2701477255090774 0.9755086146656271 -0.9156245561427295 217 220 225
-1.5493626052982867 -2.6492688521282846 1.8692886232643973 145 135 123
-1.4804887595930063 -1.6913425655066312 -2.4159759671595462 192 190 193
3.2104570898545504 2.2491038275793436 2.1248766934685159 72 78 78
1.1549922043804970 1.7117436488772519 0.0970550739839780 59 34 12
-3.2791493930852242 2.2473660419293031 -4.3430070898376751 175 149 126
1.2817419041473450 -1.4911835989081217 2.6302758115347329 80 58 45
-1.5988874992904323 0.9148203184899905 2.4417650743036763 140 117 76
3.3939897499371932 -1.6584182693905050 0.4955145624779258 64 43 26
-0.7209470259712539 0.6900666195954185 1.7235760170895771 190 164 165
-1.2903691059642362 0.5242252256458257 1.0898986748663544 78 69 74
-2.7763114013255206 1.5457138076762689 1.8891854759453941 25 8 0
-1.5128825735296934 -0.2446942214610503 4.0472990936724367 154 161 167
-0.9945969688525367 7.5814829232577248 2.5946447780848336 21 17 18
2.4211095073818032 -2.0192068343915990 1.3582592053388118 66 43 29
1.8301118427590082 -1.2125030475763332 -0.9294607278257117 219 218 214
-1.0315736073527586 -2.4462503532073621 5.2328485576888912 67 40 13
-2.0899245087324885 1.0169873254589381 1.6627621002922086 124 95 51
-1.3700836925738178 2.3913803077402735 -0.4123579555343488 130 108 84
1.2495218259008292 -1.0588544071950734 2.7128220816784245 72 49 43
-2.9923810528713379 -1.9409675976494913 2.3248356821875409 30 29 25
-0.6715571669997864 0.6359768808678704 4.6145652991050969 100 74 47
-3.6929922314920205 -1.2105088376604516 0.6110813753106533 115 87 47
1.5676866349963579 -0.6129302436009403 2.8399526771436774 129 107 86
0.7311531388835907 2.4175637052016499 -1.5027070206249202 185 163 140
-3.4089093857276298 -1.8898043507060782 1.1697261142936437 65 61 62
-2.3940959425202877 -2.4088848292157339 -0.2299767103632988 238 236 241
9.1145281692090432 2.0322727756050973 3.0821746386809505 7 10 17
-8.3333323014367835 13.4448436912449960 0.8122477327404330 158 137 118
-0.9895108665989248 -0.2076408080322670 3.9083207737382266 55 41 12
2.6786809044806041 1.1464731949898632 0.3688906279777149 81 57 33
1.8161439357562923 -0.6272429481906873 -1.0534608744074685 149 153 156
1.8312028211182503 -1.4718701495734212 1.8189373193428062 86 64 43
-1.8413956644521341 -2.4200310912089158 3.5478879750351711 47 40 32
-3.0232735973618130 2.0287421291687386 2.1116484797133546 131 116 97
1.9370354720074605 -2.1081353962514648 1.9936356252534895 58 36 23
3.1533449027467597 0.2428836408682959 0.7206815228623755 21 11 1
4.3776442770134310 2.4297057448863750 1.5864755786350053 77 81 84
-1.2249978166134159 2.6578698778548047 -0.9829470511327641 151 129 105
-2.4447688652782942 0.7842577626919023 2.5977005896282419 25 9 9
5.4851540092121311 2.5133924593859569 2.8703886127425844 84 88 89
-1.1252263250497088 7.6543228565173766 4.2949846561406089 172 146 119
-3.7122473757878223 0.9932746038067302 1.5538618460108948 57 58 52
2.9464965952769013 2.4195767694353556 3.7568919351372938 58 64 64
0.3181966571936679 -1.9324999533591634 -3.2072606870029654 105 82 66
4.1430650374325522 2.3921851298617329 2.0951960498924946 97 107 106
-0.9013454785300945 0.3795016538199479 0.7407263240530800 37 29 16
-4.5780628096564042 -1.6082357963085012 0.6274068763508374 147 114 63
0.4765018010732055 -2.3383463506807280 -0.4297008882884389 167 154 146
-2.6191361740492192 0.5433252290541057 2.9200238149653317 36 31 27
-7.2044384936911410 1.2760000512803569 -5.2540365679919825 79 69 78
1.2862237820568136 -1.6710061573829800 2.4850594184518813 56 37 20
-2.6577892835474377 -1.6973267295102143 2.2071007763737684 36 33 24
-0.5934040400089589 -0.7231068721800958 4.4374750120275479 56 36 12
-2.4461589424443719 3.7901523305307396 0.3119487579165125 202 185 175
-9.0630664393945572 0.3654391218766270 -2.7515388601336164 117 109 106
-2.8322009309885345 0.7768328647290690 2.4935325027899311 118 98 65
1.2832089032190999 -1.3601076955817426 2.6724367216209814 45 19 4
2.9499517307284249 2.4546988198748090 0.9214704336020313 141 123 109
-0.1665501688565543 -1.5601872044110963 -3.3649115147109425 176 156 149
0.4823498450040081 -0.0560149427440221 -1.7544402725828987 128 131 138
1.1395507297773759 -0.9918020205684134 -0.5795986653343053 198 189 184
-1.3986846910542166 2.3803605271523924 0.1719313361537823 191 167 141
-0.9214232519542341 -0.4539106937955078 4.0440834602510192 84 68 52
-0.9334902608328554 2.5933205778272330 1.7965163682281537 122 101 80
3.5430151632212357 2.3818967307997836 2.8769079041278145 92 98 98
-2.6591312125450082 0.8809612295992039 0.3823755527667902 50 56 68
-1.6678542841968123 -1.2630511639546849 -2.1536866208161740 181 177 174
-2.5624491099385871 2.4258395571817744 -3.9891843509898628 185 158 128
-0.8611818050044073 2.0783754167584889 1.8463252461077109 147 122 92
-7.8985648708751395 0.4926003311990192 -4.7786952987557658 20 27 37
-1.8118489119914556 -0.0485783800007211 3.8147450594136623 80 71 56
0.0009623194309404 -0.8272304239638931 0.1966693372375411 174 163 159
-3.0977565124814301 2.1516783737075800 2.3084763311266117 12 0 0
-3.2736893521871808 0.6966499815267286 2.0901844610967908 129 129 117
-2.5579101445145755 -2.4307896587763134 -0.2956210616304281 213 214 219
-3.4032511762122271 1.1526172016788157 2.2106480878245209 148 122 85
0.8131255432338741 1.8073642491196600 2.8758099141108318 85 60 38
-0.7726962946044605 0.9112472809774611 1.8106283074085383 54 37 27
0.8075284659795855 2.2998580090508942 -1.3374713254568413 143 128 109
-7.9674392747692071 -2.1994462321933690 -7.2708939262978785 84 61 47
-1.4312637734568545 0.1558988544970083 3.4349230238605104 27 16 12
-2.4412893020562940 -1.5137923815777521 -0.2687688945981564 254 254 255
1.7215017672531590 1.6896640023996430 2.0356754783862172 99 75 51
1.4692161367017751 2.3993814819999750 2.1141748943187393 124 100 76
-5.4267167025470870 0.9616851354527227 -2.8738317966749540 183 158 151
-2.9584985192112869 1.1587033725959346 0.0719613913867060 29 33 42
1.6568885006623859 1.0417435877091468 -0.2245401611929964 79 51 30
-1.0083955501252815 1.9923004916607132 3.7007134637895387 50 39 33
-2.2419026056895350 1.1836194476543502 3.8839994145956926 80 52 15
-2.0713840556383891 1.0883270631906614 1.6135351693164279 43 34 25
1.2432149526170169 -1.2494570082794698 2.8016102551436792 84 56 44
5.5325562403781605 -2.4512475235631377 3.8410995511442207 94 99 105
-2.4636766037402276 -2.0913426000270259 -3.9890148460395771 197 187 185
-0.5651154524187876 -0.0169137531570589 4.8055646440717616 25 12 3
2.7022709685275181 -0.1908996192312800 0.2328153328698462 83 58 38
-0.3239419690667441 2.4387993808625588 -0.2886719767571969 181 155 130
-3.3569740121741640 -1.9506346397577639 1.7081828572535962 35 35 35
6.6009965659266809 0.9765547812457175 3.5342603465706341 29 31 28
-4.7769931613616796 -1.1323621488112068 0.9564633771387367 122 46 59
-2.4861989249510983 1.8826303309720234 1.1351158288932752 99 79 55
-3.1899955289889435 0.5036510775408635 2.0979969499560802 86 87 82
-5.2711190832063322 1.9927800569471716 -2.0980937112875258 44 48 51
-0.4638123426022214 2.2390402719466374 3.2902073477260121 95 73 50
-1.6860214844148360 1.0409069454193975 -0.6277676920032264 198 201 210
-2.1529985139803571 0.0102557638966984 4.1627961422016018 15 15 5
0.5729583580793627 0.1515429424846528 -1.7694588702410898 42 41 46
-1.9012089910738919 2.0798669960992537 0.4815181946499266 134 113 94
-3.7672649248620904 -2.6764385591659674 0.2635308530029902 94 89 96
-2.4783565758622013 0.6463740603104967 3.0276043312295071 109 108 104
-1.1827993349841115 1.0821298802327459 2.4535357552981316 34 6 0
-1.4401242027214267 1.1521082650377812 1.3204263293489329 255 254 255
-0.4547084988524546 -2.4489191699006430 4.5242379264861654 24 7 0
-4.9827277187976620 1.2427593117327282 -0.0588760809472877 157 161 170
-1.6573264874032039 -2.6534748380902844 -1.4765395440945583 207 205 208
-0.8592414188392343 0.2994668925585433 1.2637638207008375 100 69 66
-1.3810861047293324 2.1627942127510025 1.9705613477863733 37 23 12
-4.4421652766383124 1.1979475670697497 -0.3182638316142312 157 153 154
-1.1220387086256465 2.3735443299305188 -0.3796032625151514 176 152 128
-7.9348914562284119 0.9892463020948011 -2.9317738842580807 191 190 198
-0.8946689887273336 2.2746493681589093 1.5139676235193655 38 15 9
3.1230397351278141 2.4293772191762812 1.1458448669068584 93 99 97
0.7461699088317061 -0.0923896970332526 -1.8474891251035912 21 25 34
-4.4849484736713929 -1.3366139145986065 0.8827242893585474 217 53 28
-1.8022377061850139 0.8283038712679647 0.0070365925475372 74 72 73
3.4784877862339174 2.4119945450748519 1.3827154611450982 75 79 78
2.7400789411045086 2.3717189993258709 2.2671421256527426 71 77 77
-2.7727480062881935 1.5961887293026564 1.9641105530895355 53 42 40
3.8632272888723165 -1.5456323823729754 1.0124745659458880 10 6 7
3.4553705764299787 2.3503588185913156 1.2410099738256710 84 90 90
1.1530373735080341 2.5581350108849268 -1.4420950336227576 185 173 161
-1.3984751154053867 -1.1959134970628436 1.7080385754954595 122 112 102
-0.6095214843982008 1.4948610166921366 4.6249557922590805 71 55 30
8.1261237682778944 -0.9702642358708741 3.0822660882537831 15 15 17
0.8129609008352945 1.5154172266135699 -1.6255884684735129 193 196 205
-6.5547665363119867 -2.2620304943257410 -2.1211902752979030 176 176 178
-1.3383215669010506 0.9205075556268647 2.2537085661896934 104 79 39
-2.5623618530011494 2.5623616690104107 2.1065783284258641 148 123 92
-0.5794648604372902 1.8557903921759098 4.4340103350386562 33 23 14
2.8835616671761621 1.2945670965834335 2.3735277010277320 32 31 27
-3.2733641509036615 -2.1543733613696938 1.7057274468116823 47 39 37
2.5092614956692829 1.4107732933058921 2.5531331323538495 14 14 16
-7.7643178523913621 0.8151796979050470 -3.2837448735255648 30 34 43
-1.4834675246080082 0.7749198162158784 3.2980327566277783 130 141 137
-2.5755783197923177 1.0003997348274485 1.3808840809783409 140 109 65
-0.8795367795264124 -0.2427419649649700 3.9579703347281350 100 88 76
-1.9340835657788353 1.1429439698876749 1.4756697491125854 70 63 57
2.0273661622179415 -1.4063793361144294 -0.8697383119715530 140 121 106
-2.2995147751395226 2.2752742049404104 0.7045167886811007 105 81 57
1.4890240677033950 1.9496883497508242 -0.6406376948977754 152 129 113
-2.4495301878082802 -2.5094480189054096 -0.4239722539955831 249 247 255
-0.9461382946947872 0.3693566312142810 1.7036995157252288 100 69 66
-1.1198054513329208 1.9779302908272640 3.6716833136026197 37 28 21
3.8507634658998882 -2.1290353833631319 0.2839005497915194 79 58 29
0.9334930039441459 -1.8052741691574561 3.3194034952383582 64 42 29
-8.4567951611764194 0.9895881367938282 -2.2410708771155292 48 48 50
-2.0357610746520551 2.2598139433599100 0.7004588194163051 125 98 69
10.3390757336659007 1.9268703344388445 1.8065665428064563 68 69 73
4.4449055011134302 1.4109042830644478 4.2374763892534331 185 206 225
0.3123121900712486 6.2977250179512874 1.9910521450671856 11 15 18
-1.4325711851226250 1.5388381786456278 -0.7912258555842102 66 62 59
-1.7320925431437912 1.8535577979607434 1.8038538521456160 165 147 123
-2.7832190709179923 6.4718724325115389 -0.3518797863027183 239 235 236
2.1624845090468834 2.3246608697527504 2.2949872295315061 78 84 82
-1.5922649932703872 1.9825055679013754 1.7885152751479356 140 120 96
-0.7029231196995912 2.1785757888917812 3.6954510337626090 95 74 47
-1.7989750611187354 -2.6679406966142833 4.1701667697157614 33 23 14
-1.2472175056038677 -2.3225880206984315 4.2364375816416908 90 69 52
-0.6421470291446267 0.7976246333726462 2.2635336462905502 85 54 23
1.5990789153202463 -1.5256368548882628 2.3591504562217804 84 59 37
-9.2844088249353511 2.4443816960769964 -1.1507240413311144 102 86 73
-0.7166225543999833 0.5235432334776554 1.6759555542551150 144 122 108
-2.6602255344413557 -1.7334507884866257 -2.2408951981447163 183 182 187
-1.5374702952356620 2.2113629906498180 1.4624286033704337 77 53 29
-0.5170929230809996 0.9977592612523748 4.6373916643357838 39 19 8
2.3633634141135964 3.0327902098115134 1.9739287673659598 145 127 113
-1.3040834107685686 1.1466789851761943 1.6638880918891501 46 23 17
-0.7877609961623939 0.8873190139126484 1.7797213809196410 130 108 97
-1.2459061920627827 1.1794985611520099 1.8132538773503197 105 77 76
-2.0065153388680219 -2.2694757412679083 3.0903748668871880 14 7 0
-1.2239305282611816 0.6177961778699608 1.3504192220315034 51 24 17
-0.3763739270416302 2.2768996963438104 -2.7739470478181385 125 103 66
