ply
format ascii 1.0
element vertex 701
property double x
property double y
property double z
property uchar red
property uchar green
property uchar blue
end_header
8.8403565664060615 -1.2683735213811023 -0.4354726733678101 110 86 62
8.7469302965555240 3.5298789124887340 -3.4794211572472586 122 101 80
5.6047411255238924 1.5553101033944134 1.0143928286919992 140 112 65
0.5402251519551833 2.2326125850979177 -0.6313110055627071 18 0 0
2.5784315962329134 1.4215496679084383 -0.3365342551362112 119 117 118
-0.0665043692535083 -1.9143890685025624 1.8748561607144285 63 59 48
0.6518320165697011 1.7860162835501097 -1.3958960711151567 205 208 217
16.8217494700849244 0.1017832463373566 -4.3944163802197442 81 91 118
7.9875848778530614 -2.4590400697426271 -0.0611196476054217 121 104 96
0.3181755081346224 -3.8405037221916092 1.9653849184795371 50 23 2
3.1773817521898247 2.4696245259815179 -3.0972580096145790 98 82 56
3.4237955453186792 2.5669059653866682 -1.4607735947485581 53 52 47
10.2729953054647183 -0.4622005120818797 -2.3442363805202420 224 203 200
3.2070508907459354 2.3517505959554454 -3.5471004769637235 48 54 80
-0.4841062112318841 -2.4369499969068280 1.3285510047267124 74 60 47
7.0959155760058970 1.3277149481481947 1.6121988542211425 63 39 27
2.2240655087569481 1.0900937331666742 -0.1054677431168412 38 40 52
1.5716404724979762 2.5354376541826693 -2.5947505644718309 140 130 131
-1.7436151531821444 -1.0959239514868899 -0.0473089330957544 114 140 129
-1.1663822969748490 -1.7328906099354118 0.7419755729069192 68 81 71
8.4805645964858005 1.3882951874054241 -0.0719413085833961 136 128 125
5.0031522673751203 1.9154585086708560 -2.8710864825295519 30 12 8
1.6514475186960953 -4.8963451120520034 3.7762070694773167 50 73 65
4.1073235574948281 3.1279926636516202 -2.5359548328988994 102 90 76
1.4135705038635160 3.2888824916762105 -0.4232066308948985 114 103 83
5.4353457377332601 2.0070763589742859 0.1761937154149968 54 37 9
0.0207334510828178 2.9375700521878483 1.8149011009491234 110 106 94
7.0125138523572224 -3.0119609562992524 1.1162404943485444 87 56 35
6.1354771591101658 0.9936916568939270 2.3804500088396479 149 142 136
0.7308440751237525 3.0031933838309510 -0.6054184769234179 52 45 29
4.0074562131696636 1.5845846806515032 -3.8095127442975842 104 102 105
2.0128293917992788 1.1684582552167229 -0.0377004829048823 60 63 72
2.1178849745730655 1.6427886782271901 -0.6436113420251885 43 56 90
4.2187607813017465 2.8184547369886457 2.2234307948066885 57 40 20
1.6301575745163339 1.8665559765158113 -0.9374494021241723 10 12 24
-1.1052832888753918 -0.6440262077260440 3.1722945315410906 91 93 80
7.1862261174219535 1.2977271777927140 -0.8744651066108523 163 119 44
1.5290647405768196 1.8740572344975683 -3.7334672582862538 182 181 186
2.6001641352161160 2.0751885103399079 -1.0235273669917078 32 50 86
-2.0205093926204909 1.5387045232038064 -6.2590015473200236 108 85 54
0.6502476139964253 2.3899478822323599 -1.1565968909054900 142 140 141
0.4828903518666621 2.9400134872780863 -0.7540353114779498 60 51 36
4.7752011690429130 1.8175902204612919 -3.2081070141376995 39 32 13
3.6528190356805927 2.5514349949440378 -2.8345956177513880 114 97 77
-2.3511607380944048 -2.7906111752255534 -0.6814392096506683 84 60 26
6.0522416105694727 2.4970831267978517 0.0446539293896040 59 38 7
1.4461510072182913 -2.5269598361322392 1.3934429839844602 130 119 101
1.9491278110201453 2.8634399680258031 2.8545293753962282 77 69 48
-0.6755167465120041 -3.0960953049572377 0.9026569957992908 78 54 26
2.0195566554238322 3.2800661438300720 -1.6004718810651539 103 94 77
3.3197359705185501 3.0983799376752010 -3.5109558094257540 121 109 95
12.5685248644584107 -1.4612297562503629 -1.7599932468884065 162 151 155
1.8568968533053016 -0.9300316190960173 0.7444577480595714 66 43 25
7.0580702241442372 3.0775387840587252 1.3333073498033230 40 30 18
-1.0774762651382634 2.7783806465880949 -0.4961022522350200 43 37 23
2.5663125378230074 -1.9450336325007798 2.8190447012037003 157 133 121
1.4372454081486674 47.3653607204786624 1.6746635627781086 105 97 84
3.0323042726169405 3.6337006348172443 -2.4826761564219058 135 94 40
11.4878638497378418 2.7931578353597923 -2.5096856570526942 179 153 152
11.0672674760268173 -2.8627081814193032 -1.6079300244377341 117 83 55
-0.3439753108704900 -0.5005207053007826 0.3998089628516630 30 54 41
-1.4555916475366859 -0.7185776965218391 -3.9765981736751295 210 202 199
11.1167363069584724 -1.5580916557799493 -3.7828178046363878 115 95 94
5.2890137012083036 3.0835641534870284 -6.1192496840920532 123 115 96
2.2541491229315391 16.7573243392124702 2.0341218989045902 77 72 68
6.5737932710474558 1.1845555053057744 1.0696812135925862 133 112 29
14.6377423323817464 -3.7639553205878964 -2.9296056185443322 95 56 41
3.9966083144774855 2.8346580069802036 0.5369578038201336 131 122 105
3.5962785576677283 3.1883700413058316 -2.7951029881470228 161 139 116
2.4276719822046049 2.0808048261749557 -3.9938296154797333 211 208 215
3.1984242110314476 1.8049558276102826 -0.7160834506598281 81 53 16
8.5755065326675926 -1.9341233459538996 0.0680672915169669 126 105 88
-0.5030500682495120 -2.2578039184894951 1.4167723276762818 64 60 48
2.5605651004098338 -3.2876631694572138 2.3345226807964932 155 144 138
7.8892994515324375 -6.3381873818961809 -9.2957239018184303 111 75 39
2.4997117599088079 2.5337543296133886 1.6804145449144421 77 64 47
0.4492578395388050 3.0436693574114155 -0.7371184494834931 90 84 70
6.5027537458185183 2.6896887534443006 0.0842238662555401 34 24 14
-1.6125478319226318 -3.3097733174247681 0.4775022138159080 31 14 0
-1.0940539178053261 1.9398421777821269 -7.0291948372896744 38 24 23
3.1725512770299527 0.5275209442325864 4.3072940958725843 188 183 180
-1.5181825256709713 -2.6568225083515515 0.2106529398222197 14 14 6
-1.9107257762671794 0.2181253471733115 -8.0226289843499607 175 171 172
-1.1380980548860742 -2.7562649478052417 -6.8109545004432386 171 153 131
12.0897941918883749 -1.9892192558745967 -1.3444831630209821 87 47 12
-0.4389136336587498 -0.4719546002928779 1.6466524398063562 93 96 85
7.8522858298387082 -0.2679305675321393 -0.3608900990341214 19 20 22
1.0507566395463521 -1.7687778614075504 -4.4459182662850480 181 168 160
3.2893489791452968 1.5740852679402362 3.2423557377085257 89 53 5
1.8269600342690326 0.9778015598536904 -0.1955532380368809 95 97 109
3.6261267176811329 -2.9437125493919902 4.4409594582752447 68 32 6
0.9538449634569749 1.3772294917341790 -7.3216367260640496 160 156 157
8.8541885512824763 2.6400029587006406 -1.5500189485522240 110 99 81
3.5383866623017477 1.2649887603927876 -2.8592128775643073 191 153 70
8.4155522447676443 -0.2374255428157420 0.2203909693933916 120 104 91
6.1335068217789077 0.1414909344258890 2.1673028851824343 164 147 139
2.2365747694357787 -2.4825726436874205 -6.6984649468872091 164 155 148
2.1670023976362027 1.9675576511744695 -1.7099239708608767 169 157 133
9.2815450134296729 2.3805040312675421 -2.2561735397322469 152 124 103
7.6885419842942255 3.1573316449512960 -4.8879106705943185 144 108 46
7.8398610813329146 1.3441211427959450 7.3890137545018311 85 82 65
7.4065481827152286 1.2495370500382335 -0.6953073693996312 126 84 0
7.1906567174893183 -2.6493249062265050 0.7924066198285624 124 107 89
-3.8163724112400983 3.0286265065929654 -1.2110874003659924 71 92 75
-0.6662537085428235 0.3479063947852470 0.2753808750785811 51 78 73
6.5926587059463735 1.2123877753363699 -0.7023082846446765 145 107 45
7.9040086358183661 -0.1088971901451770 -1.9574478133340090 251 206 138
7.3690987689872500 1.9913805822040245 -5.0853251654131544 62 32 4
4.8799852187211847 -1.1148531898379734 3.8206931849626362 161 156 152
-0.9266798392352232 2.4546391740017501 1.7726585086621394 62 61 56
3.4933722057936323 2.9229926382009541 1.3112866996417207 116 107 92
4.7208892973549501 7.1565027015260503 0.8550393080863142 52 43 44
-1.3059265602553325 0.7916370667649142 0.7719009882528554 37 65 53
-0.3351166978826894 2.9021755670750102 1.8180141494783961 44 42 30
-0.4947855646522653 -2.1208970101125417 0.1058298593038560 31 42 38
2.0874375779424845 2.1763013745978603 2.3030514992056244 85 68 52
0.8504497463934534 2.4143628812211677 2.5515029346638061 63 93 83
3.6896367930439351 1.3246448299056954 2.2391192885440203 40 17 1
3.6958001390298652 3.2048131883854740 -2.1063778547565559 141 121 97
0.3012777523918503 0.8063116147007858 1.7406370289519564 62 62 52
7.6465684812350867 3.6830195853158840 -4.3931602232216687 125 108 88
3.0318200927491339 2.9745621221498930 -2.0745475944591001 138 104 59
4.5819944124189576 3.0956409760182062 -4.2142794795731326 99 91 88
-2.2693609475375709 1.7046674003897497 -4.8962897445361726 80 71 74
2.9999798749542528 1.9236865338670874 -0.9930425797460520 26 40 75
2.1075797659474298 1.9732862977649088 -1.6931777752608155 168 157 139
12.0577793033162095 0.0029679631334136 -0.9406184004126962 145 115 89
6.7137713314297347 -3.2737619148916748 -2.3828609709882937 171 156 151
4.3372873587781493 1.7650388336743410 2.1541337979911508 120 79 13
2.6809902392740153 1.5801329484668014 2.3517779822197822 188 173 134
1.6177189760783912 2.5206493637041820 3.2168306467855863 121 114 104
6.0460424327073454 3.1201629042984260 -3.0292997477718306 157 140 120
8.3397298964986089 -0.2018434146615006 0.1834283024892693 137 126 122
-1.1724413184392848 -0.1091133341805964 2.6300208738972746 49 51 37
0.8511568135944438 2.1992944962777039 2.4503368092725548 57 78 71
-1.4663049464292246 -2.4312341386154692 2.2140392628285879 51 51 43
-1.6780517262561614 2.4672778144484506 -5.8940370742818402 85 52 21
6.1573680323414361 1.4938338497011232 -5.5051960910763968 148 125 119
1.5637797677561072 2.4808746262215715 -2.2921629979830556 149 144 141
6.2033897023990301 3.2139200646942929 -6.1975041967470235 94 49 18
-4.7368527627893613 1.8844245031801483 -3.7431487574570981 96 84 84
-2.7011030786517991 -3.1442663405767490 -1.0007356064039590 139 128 108
2.7071072813281618 0.7330691853249858 1.7332454267773263 48 77 73
1.6578242871741005 2.2130008904720890 -2.6097724578513573 128 122 106
4.5296786152983657 2.4505383695772109 -5.9024078410046386 136 127 130
2.9313237879096770 2.1729984378648544 3.8229450320177247 105 70 4
4.7319485318535666 -2.4760120430203294 2.1250710962859847 125 107 83
7.9450469919755005 3.0175172424750403 -0.3399456717641645 123 103 79
-4.2585582182241390 0.9645508780592276 -3.5047551237582830 31 30 28
4.1648900369469937 0.7925463320832297 -0.1723755485100372 35 35 45
-1.7464567704073006 -2.9350442899449067 -2.6175424582295523 206 197 200
2.1805967423667338 2.2440467527622689 2.2633411756561350 65 56 39
7.2780462646199657 1.0752581914776718 0.8538349505839465 93 68 48
-3.5983465569641240 1.4361292185233201 -3.8062454382496886 183 180 175
-0.3642178599008248 -0.5617130338974766 2.2187877720075564 81 83 82
7.0116759239526756 2.6305118935477045 -1.0659345127095634 92 69 37
1.6469644795262572 2.8183856106759202 0.0482213671019706 83 72 50
2.4716575769758751 2.2772508528662967 1.2509820881058626 80 69 47
2.8780872513665927 -3.6846832818915032 1.3151503091529826 178 177 183
-1.1600239976339868 -2.7732493196030248 -6.9435089257296907 160 134 119
3.5354998637335049 3.2627734980414345 -1.0141856617247067 117 108 91
5.0385183343180922 2.6607388514871175 1.3366344750114612 33 19 0
6.0583649320274136 1.6864414570291812 -5.1016047112763276 170 146 120
-0.3315703038183795 -3.0250292938554644 1.7453506613356993 31 25 13
6.7589235874519966 0.2438040567104897 1.9470962283337525 121 112 95
-0.7442242689277536 1.0039084121354656 -0.3434465562913381 77 70 52
-0.4311990657224799 -0.8612810706391107 0.1391218926851043 92 63 33
1.0949445728527585 3.0183409579564269 -0.2587941768512201 101 93 74
6.7413775862504339 -2.8331619924761955 1.1628185614390920 99 65 30
3.6297536489283648 3.2683770009170594 1.6335578693643640 76 64 48
0.6873781403616297 -3.7042059889868608 2.5572012635050361 47 38 29
2.8030808548800872 1.5727225817427659 -0.5363554179094401 98 68 32
-1.6676737436078386 2.6287672020643735 1.6544720090304030 10 9 7
0.4363169721063532 2.7556767780489766 -1.0268696708381171 54 50 39
-4.4714272980255716 1.6043776572547095 -3.5268567906601160 100 88 88
-0.3213601276476000 2.2118421453237112 -9.1653730230347268 215 219 231
9.3379076322880525 1.3545426107215701 5.3073262961197401 168 153 146
-0.6144088391720682 1.8553967750557030 -0.3594447086748375 115 119 131
-1.5110055271265310 -3.1864566133774823 -1.2269284666573588 132 127 121
-1.0959782338868513 -0.3365555605919499 2.5712899834789131 107 106 101
7.0176275534051351 1.2987467896498563 -0.5514066012864185 168 124 51
7.9897162875746348 -2.7406943890392035 -0.1143584075557560 96 61 29
8.2978010144705614 1.3948241240585746 0.0787723953206295 152 116 68
3.3415913774076103 2.9959240181620199 -3.6939171653899150 78 63 40
10.2040659041020074 2.8035666142400411 -2.9665211246246783 138 95 61
-1.5838444799483047 1.7894641056261913 -1.0708892328978401 176 174 177
-0.5787313275024606 -2.7098043691715916 1.5723239886927760 36 32 20
12.1515429952940774 2.0506058619017171 -1.3326809856272035 149 105 56
1.1614558286683312 2.4750274106355654 -0.4295672033443393 53 45 26
-0.1649600732276074 2.7456506614986735 -0.2734320847459946 73 69 58
0.8514866352175243 1.1175641029848893 -0.0453446272189917 53 44 29
6.3819569751707794 1.6901412357661612 -4.9105721087407348 72 31 9
-0.5392767364307360 3.0071677063961313 -0.2194446374677135 82 77 73
0.6187558799712066 1.7997574279696607 2.1565094539920349 56 61 57
2.0246845196608323 3.3638175855322863 -0.1494688025240340 77 69 50
4.4237990550610293 2.9507628161802169 -3.1392235121001257 63 54 37
4.3187044873336822 -3.5524839496773306 4.7166342025305577 77 43 15
5.9886555492673441 2.9440829479613950 0.2161835530560404 103 72 28
3.0014423747647379 1.3227163657142054 1.1738790895154061 129 120 89
4.2447209666671402 1.2516506326767494 2.4517976882096195 163 125 50
3.7013923565492552 1.1203589124975812 1.2701509904316390 40 27 18
7.3308891596166070 2.0302307843956111 -4.3710786234773265 94 65 47
-1.5611880011456767 -1.9076400288779407 1.9605794588059278 2 6 7
-0.7895483324374358 -3.5572642061203164 1.2995272227707468 85 65 54
9.2773493648741159 -0.1122054861115838 -3.7320002359311295 92 27 31
-0.1336710910595262 2.1540358240158350 1.4016052722468850 53 51 39
2.8684900003125295 3.1279037682733946 -1.9684693131851994 48 33 12
8.0176280036623790 2.8605420945191873 -0.0056274052413072 47 30 12
-0.0977506861598712 2.0288300260169603 -6.3152632887913027 191 186 190
1.1180221222514763 0.7303774680628015 2.5433096597374480 48 80 75
-0.6040907714976116 3.1878851183272374 1.7704293780193763 56 52 41
11.3393872943231777 2.2607804041911366 -0.6031429187464851 135 84 27
2.8973678306440558 1.9792447791637851 -1.0184286041207957 37 45 81
-1.5666598954123192 -0.4173382069123413 1.1739309756509411 64 65 57
-0.7741494026002554 1.1329803493452077 1.1918570813959530 6 6 6
3.7854253618461988 1.4432180285526379 1.9903918279412056 137 125 67
3.0868586012318469 2.6032107608926625 1.2881126820149054 38 26 12
8.0749348775767213 -2.8169971189571767 -0.2072126552216898 138 107 79
1.0100981313467940 3.0690321787906640 -1.1373722338778203 19 8 2
-0.5031001439576019 2.8042893613678030 0.0543577809305889 88 81 62
8.0755830961473993 3.0217124253712151 0.3242416573062775 132 121 117
3.1585386969643081 3.2329854116128693 1.9503074720335496 97 86 68
2.3294313500312338 3.5219944257665086 0.4266027351531340 32 32 34
3.8060783284742641 1.5468208286338110 2.0610471079187223 122 100 59
1.7764685194286942 -3.2355841048383542 1.6091483484517588 144 133 115
-0.1887660124903212 0.9270267348046790 2.2357680934741464 65 68 59
2.9722230209651013 -2.8920556308083492 -3.6763660657818189 115 98 78
6.0377962402143508 2.0663039455315344 -5.5404948485394909 157 129 143
3.6835704201987336 1.0925035820092095 2.9736685556671691 192 152 67
3.4269776024876899 -3.1618063539508579 -1.9881150340442548 70 61 52
-2.2475460473971656 1.5361558712114078 -5.8618117567747392 95 80 49
12.7516152225687041 2.4446676348630860 -2.2371258886092864 113 62 67
7.0756211112321807 -2.3042721143909297 0.2535973619813673 160 133 104
16.7954745894719686 0.2706736852617972 -4.9085382040412702 124 134 159
-0.8020583772444125 2.5839734461362656 -0.3119696908681758 74 73 68
5.0191741782960735 -0.3687376645884524 2.7315261262539599 120 105 84
-0.2998306459619952 1.8375591759322421 -0.3551711016796208 172 172 180
2.3887525312774538 2.8009415283572117 -4.0963351863667006 8 4 5
11.6692762826868801 -0.7631002719717560 -0.4975035146124020 80 45 17
-1.7246241262903301 2.9065373917730581 -0.7552964590404517 69 61 40
2.0870759383101074 2.2266768865766404 3.7039199314203692 77 88 80
6.9545949696234297 3.1777862377903530 -1.0104504637771416 115 100 79
5.6740170459189461 2.1055428866507180 0.8892175079512920 45 36 27
7.2202698225373876 -2.7211566548404202 -3.4897489988183259 145 122 104
3.4319876378155740 2.6528156756190775 -0.8738472462324187 113 104 87
1.3261062818220668 1.0312460871046629 -0.3309256912937383 66 53 37
-1.9517426356190142 -2.7871829771190177 -2.9136589878669286 178 168 176
3.3859702079805194 1.6193670897600489 2.9816912995363025 43 19 7
12.4214490194415070 2.5712543568555253 -0.7408743104633312 115 74 42
-0.0664858404944153 -2.1022518973116990 1.6507698437805087 53 49 37
1.6157854371273537 2.0887407296479732 -1.9526938298528256 150 139 137
1.6809583587263235 1.1873920522215908 -0.1117728202195634 158 131 110
1.8826122386978512 1.1792963126810498 0.0688062049696945 1 7 33
0.0289109565266593 2.4930087631141040 -0.4278815015311830 158 154 153
4.2889206436728715 2.0193834857548394 -2.4996236474612239 32 14 26
5.8250941925784616 2.2123431008069829 0.6704471701710966 64 54 45
-0.6045285745150454 1.5009657498699041 -0.3220534894403680 133 139 137
-2.2622709252892776 -0.7051763592795069 1.4472154218177127 68 68 76
1.4941408109169767 2.4490821823334445 -0.7261416334904198 96 87 72
1.6391358651695354 2.4062230010641747 -0.4320346129218091 44 45 27
3.6679154124873081 9.7622121775250363 1.0404670948993868 58 53 60
9.8188534952461808 0.8778908540682155 6.0117217600841366 199 187 165
4.7056399625544838 4.8000147633846240 -2.8262378740225422 68 75 85
-1.5803155709041083 1.6121617702589757 -4.2907278088836032 221 218 229
7.0169365858758823 2.4736244321019285 -3.8968579896906226 116 81 51
-1.1293140934372352 -2.0624770200177900 0.3203655448210412 12 19 11
2.2008720046113628 2.2615547114340973 0.0686246467413627 14 9 5
1.4252214140755608 2.2323087922550013 -0.3761182569356925 106 97 82
-0.0151002480831175 1.8462484369739851 -0.3799988829550053 191 195 206
9.2435230977138385 1.6439805305929822 -1.1678116722526255 181 134 66
1.7831332035105862 1.6969365721004854 -1.4498830754677077 133 102 82
0.0773570665917340 -0.7160490922036968 0.4708292074850604 62 42 18
0.9103050231160794 0.5259024023012268 3.5844820610029720 21 53 50
7.9080112529331386 2.8773227431323400 -5.0242214662978775 57 39 19
-1.4601898230133004 1.6730635799581011 -1.3404084187623400 205 205 215
11.4649187881796433 -1.5356195341598144 -3.3208699317617238 138 131 149
-1.5227510863038936 2.0221592763935337 -6.9355849754179788 142 118 80
14.8247250267723416 -3.1367241288398038 -2.9390218052905146 120 96 96
-2.1145304788291042 -2.2224813660721106 -0.8480459413482018 167 152 133
3.4822839045976792 2.3957449409952893 -3.6499018785822761 41 60 93
4.1727399359400952 1.0119559056732641 -2.8509456460309774 51 53 65
5.6598573576765157 0.1139309185872174 3.0774800965978106 109 89 78
3.1456430505860311 2.0376830326845528 1.3211305518320049 126 118 97
-1.4416408988827345 -2.1404559599136830 0.0383328036507897 36 32 21
-2.0782630889804450 -2.5961322123897173 -0.2991960290449937 13 8 2
-0.1071632851927409 -1.0626859824391564 1.4171343075953506 62 60 47
-0.0092940221344172 2.5337065057810757 1.6701159981777709 109 104 84
-2.0685072284918089 -0.2505991687887777 -0.8853207827346838 196 191 188
-0.1330607517594244 2.9070357463530443 -0.0702621458269456 89 81 70
3.9779187876207041 1.6539480447627128 4.0866240313451918 185 147 64
8.1248547173789518 1.5299222001842319 -0.0217912915077178 151 127 103
-1.5494796257862491 -2.6079548219745452 0.1983419153501308 46 53 45
2.8351224521847751 2.9307721349497338 -1.9416411205219342 81 66 43
-0.2433233635591056 3.1683458535304232 -0.1151323603787397 81 75 59
5.2864051038846505 2.0202093298599548 1.1377092816423249 62 52 42
2.5054794547694557 1.1913810724992906 0.0978154828232361 162 142 107
5.9609796785495517 2.7376232072634310 0.0769010813026635 83 60 18
-0.5041876982250137 2.8966856516375712 0.0727520609821885 58 59 45
8.4866397038342587 -0.2384285184786712 0.1300891711312154 118 105 96
3.3508681705790000 2.8802362030508593 -0.9949987780499111 113 104 87
9.2362341567031390 -2.3121791287387965 -2.3286801524753473 106 60 34
0.4077169911480717 2.3830332752095424 -1.1675051527311016 192 194 206
2.2235576748591659 12.5789823196092350 -0.8224627681907865 125 120 114
1.2668364206144977 -2.9015033299315638 -2.8366871386665835 139 122 102
12.1635674550487423 0.0575613010559835 -0.8099330771071116 104 72 49
-1.5732076662806718 2.0762779209363913 -1.2293626949928937 193 194 199
-3.4323341491395269 -3.6060275158832433 -2.8614941496729478 153 144 137
8.8954154907943810 -2.6530650252178152 1.0406749443929766 157 107 56
-0.5432518385906736 1.6214103321459825 -0.3070676715560240 100 104 113
3.3915357848603205 2.3668338197385199 -3.0670498151828141 136 118 98
5.1585016463509676 -1.1931776763320692 4.4630096775372321 151 140 112
3.7179804217491559 3.3685783449504827 -1.7543661163878665 190 181 166
4.5939817015595148 2.4013758201966597 -2.6759045324789876 131 109 88
-3.1825499164174844 -15.6515148547182648 7.6680857583559563 32 29 24
7.0220140557788664 2.2185112082310638 -4.7579467593525910 56 31 24
3.0114893265044476 1.4479069570036194 4.0708302369683436 126 89 36
12.8972798515482996 -2.5251728063188357 -2.3759816796631310 103 88 95
-1.8428207969980048 1.8532700204045125 -1.4383949650915167 200 198 209
0.4713085099363055 2.9049084769634845 -1.2136309205028986 73 70 65
9.9932132570073442 -2.2110635517629089 1.4435845567834051 129 84 63
2.9136198568886496 1.7128844301209361 4.2349227535584530 116 80 32
5.0535358945919207 -4.7550124790261554 5.5385884929969604 123 101 80
1.4669194363605316 2.9046518039560043 -0.6169898796064200 58 45 28
-1.2775630470283392 -0.1125768352728353 0.9515182021667791 43 45 42
2.9985612394329046 0.6448178186342156 0.6218780421299079 61 86 82
3.1265073514824571 3.0632169574586086 -0.7100883261002188 120 103 83
-0.0541077674789433 1.7780561172664888 -0.6528434224614786 207 209 221
4.6716954407917033 1.0783764282615116 3.2237323144293701 98 91 83
3.1688770140001750 1.8720262640658154 -0.8209638475857600 138 102 42
4.1470464321740392 2.1623650802145988 2.0623160354705727 86 66 59
7.3069134768714310 0.6844502456350121 -0.0417152773397098 126 116 55
6.0108881919293102 2.0633971629243915 -5.3935526967498930 48 27 6
-1.1110014817328064 1.9402487770779864 -0.5712248444610730 66 67 53
-1.7670795504622139 3.5454086105724625 0.6892650767229145 116 110 96
4.4775878386246690 1.5031597683001892 -3.6453454021951788 36 43 53
4.3345100497282916 2.0953300124312788 1.2742197768964918 34 21 12
0.0072456798785811 -1.7036120034300235 -0.0338952447267801 71 55 30
5.1229459790866736 2.9770497806279534 -3.5423643623049519 58 45 28
2.0162999596262807 2.5951791235844204 -3.0320991501548828 113 106 88
-3.0711263598608274 1.1671879136043148 -3.4904014049813759 28 27 33
0.7397025561429251 -0.1204529616698819 2.4817540253610706 57 83 72
-1.4517782438828615 -1.9814828171471128 -6.9359445359390106 184 166 154
4.5237740085326328 2.3715978422859032 -1.7769343478462976 148 136 112
2.4485403509699544 2.9828505557653031 -2.1014018298950337 131 122 105
11.2160061355919858 0.0157205176840499 -2.2040776755871168 64 70 94
3.3076917724997146 1.4492551182001403 -1.5787396225334143 53 52 58
2.1162561161756770 -2.3595270315377435 -4.1758378110501093 175 158 140
0.8960740744313810 1.6882171099273529 -3.1425112811477764 1 0 5
8.2894676843528234 1.6954405843662270 -4.5255194402880221 90 42 42
-0.5169127129906125 0.7137470840351124 0.1595348678181338 33 56 50
6.3077962751846774 1.2869360008222999 -0.4894917495813590 70 57 40
1.6619613937588709 1.6679241592261680 -1.2855229796066452 47 36 40
2.5260406082273534 1.2727214587817215 -2.3590301228196631 166 136 112
2.3714717240406609 1.5041961237959864 0.4748800784489943 151 143 124
3.3630325272832895 3.3193347187198223 1.6166702717837884 102 87 68
6.6673902953756397 2.9833814201070434 -5.4425105050445710 90 79 61
2.3159015223326520 2.6434828961312897 -0.0769093595691141 19 15 14
3.0267756364327250 2.0917058714347418 -0.5765752940991710 25 12 0
2.1131950798565318 -3.6178578685945051 2.6323011629393753 145 133 119
12.6301409674685647 1.8641852387922844 -1.8920350601192066 153 119 82
5.2505383968973600 2.2732323231768952 1.3443096974600961 42 28 19
3.4415064243815308 3.0354455038672796 -3.2523363637733196 118 106 92
-1.1571927082269193 2.2126976994825744 0.8672448296007707 71 87 77
-1.8250497729484649 -0.1211692767051243 -5.3806864347784975 171 166 163
-1.1851272555642685 2.5311736871040842 1.4627203342207007 36 15 0
7.8764620781316097 -3.0889984450560264 -0.2318340980705107 68 55 36
7.0136627044560580 1.2877546301086156 0.9713370132279433 115 89 28
0.3901414896330164 -3.3508877724127593 2.0863541863932427 34 16 4
-1.2743334294087960 0.3478823002014829 0.7370898846315597 35 66 51
-0.6660513643868553 -1.0354154229054837 -0.0825254495286163 86 71 52
2.2487429914116639 2.7221317714333892 2.8851191695647231 81 69 47
-2.0960770224530951 1.5601847977708647 -5.1128138689865805 138 130 117
3.0684173571257660 3.2632083791543183 1.5378803746909389 54 45 30
0.4742814254959574 1.6585777484644773 -6.6525453392626233 222 222 232
4.3938104872933117 2.7970840913323478 -2.9913910302225859 82 69 52
1.9586956269650102 2.9235349717750752 -1.6968234528804969 129 119 94
10.7713323854041949 -0.6229327671468035 -1.7567790280099251 130 144 170
6.0517934511699245 -1.2253389856774057 2.0323486065858618 181 174 168
-0.7347741463449765 2.3632138122834321 -0.2744878303749778 72 73 59
6.9048213048620735 1.2387658417453837 0.2815098900705394 163 127 77
-1.2813188330302618 3.1216395345227350 0.9130917180236524 68 69 51
-2.7748063475587794 -2.4564068899657645 -0.9648585873307662 130 96 61
4.8788440928229688 2.3894044171070128 -6.1247444947109253 76 72 61
3.4686386470020802 0.9483285736749169 4.3888838174326468 173 159 159
0.8444738875833270 1.7178041749745296 -1.6972320976110009 208 206 217
4.3561579014150729 2.3667148925573631 -5.0574154605335409 129 130 134
4.8896117384419737 -7.1905563253703164 7.7637953804537121 93 57 25
2.2726745512319857 1.4434352177291303 0.1448647059139045 142 110 63
3.4786080119128342 -4.4118412949937342 1.7038915923517919 165 152 146
6.6578626360698134 0.8173925471842123 4.4183590780332889 147 141 125
9.3391014507898351 0.8490861751423053 -1.7501618470833451 134 118 85
3.1751479339252118 2.7551785025307551 1.2661731475162710 40 27 11
4.5329517144008271 1.1328418907357884 -3.5107438811802529 84 84 92
8.8566783402932767 -2.1147008090224899 -0.0935562232902793 106 78 56
-1.0198585563301410 -2.1442932488130375 0.7985941249823131 43 40 33
0.7043153563769926 1.0829151641860744 -5.3160619891453909 213 211 224
2.2258654767667521 2.2547398032616774 0.1639181588085172 80 66 39
3.0035087318508236 2.3140820183767232 -1.8488515170223445 121 109 87
-1.4171798341228592 -1.3292267305587295 1.7429013527994013 4 4 4
-0.6262543687801038 3.5591442482382458 1.7989157622241989 77 70 52
-1.2916459984754587 2.5822758888092170 0.6758698093396650 50 73 67
1.9093091989648598 3.1227886860251837 -0.0757876982060460 80 72 53
6.0441301273453929 3.2717334468731458 -1.5720894812446888 124 112 100
5.1523835216937934 2.8770769392067472 -3.5561141594774286 134 121 104
2.2747930788034467 2.7624044786342075 0.0568128639297755 59 48 46
1.4817206792835402 1.2285670457865145 -0.1352036081937228 48 39 22
4.5001076415919297 3.3154467590609293 -3.1382839749109279 96 86 77
7.6041403752527197 1.0526119370653617 -0.0374724837864615 120 97 30
1.1591471085624110 3.0041769402839007 2.7200249748203640 16 28 16
1.3754948146516637 -2.8888328527025142 2.9833466897171599 34 25 8
1.8021896942598616 3.1152495139645433 2.5316640049870256 110 101 84
7.3032968014284299 1.8623411361662501 -4.7696049212341860 95 77 63
8.5065525639129049 -1.9903902997036311 0.9201071672408151 191 130 73
-2.4108307671310660 -2.5156170790555881 -0.5850423263083762 111 83 46
2.2568617459733953 2.7321790174633747 -0.0159021616834455 51 43 24
-0.4094051587094544 -1.4679786957052123 1.4530567563160919 67 69 58
3.8527628288327285 3.2389254098439642 2.0330126537556188 119 110 95
9.4096282768794932 -0.5936608180434360 -0.8711803173181509 92 53 22
7.6505834814345350 2.5065241832451823 -5.2298775123738501 71 53 49
-0.1843455044629041 2.6238294257233719 -0.1622291991916555 150 147 142
11.0078631540252996 -1.9565353481379808 0.5405433494701404 82 39 5
-1.3762325632543713 -3.1033159965851538 0.5329061952696675 36 17 0
2.1426122101556855 2.3037042672992367 1.4701484931487427 79 70 55
3.1864012873370133 -3.2682836610325814 2.6672328028867271 140 126 115
12.3485904979744152 2.7394481287036498 -0.8610827433752429 117 82 44
1.5407266627188756 -3.0964559883215865 2.7605993430655067 77 50 20
-0.5744939111114552 -2.8546443801466701 1.4222788705318814 40 27 18
2.8891229937950058 3.2955217843291682 1.7395770897453049 84 76 55
2.2588573244582206 2.4655519678719799 0.0766471429111820 37 29 10
1.3617718772942407 1.4629163417657287 -0.7674526960751652 36 42 58
2.6897806703034921 1.9417816797491023 -0.0440548852420274 25 14 30
3.3754701287947140 1.3014455520760000 3.1140739219032230 160 120 58
-1.8746614297025859 3.1489400983654230 0.0193278755461808 94 86 67
4.9386017035118011 2.7254931927161494 -6.0969158664527896 109 100 91
5.1473142179123830 1.2250048205743034 -3.6709001164878345 10 10 18
2.0629101207041867 1.1802233279866146 2.1946816559398972 102 86 60
7.2430972833689315 2.2359635749103921 -0.9020158841742236 38 27 21
1.5620186154905558 3.1763600073975735 -1.4150160153975588 81 74 56
7.4661305470284356 3.2091146977478657 -4.9918084700417893 56 42 29
7.1949868188779522 1.4681408416756214 -4.6131644304255763 39 20 13
1.5044443064353035 2.7362726124017613 -2.1149280473960794 116 106 96
3.9507558437099308 2.0724425575642145 -3.6480777148193302 28 48 83
4.3491337754170258 4.7242344695010949 -6.9485100721365285 139 130 113
2.9396482207203860 2.7592923666252318 -3.8656086242019785 145 129 106
0.0356275708822181 -2.8752720657716795 1.9514140693793462 44 41 32
-4.0452703043213196 2.7029775738898056 -2.7104856073096535 178 170 159
11.7053587080114987 -2.6226889524103845 -0.4636462568924798 65 35 11
6.5980506397887027 1.1279877912129377 -5.4840272117163735 163 161 162
-0.6268364791420123 2.0615848220789541 -0.3211326078094785 117 119 131
0.2134129574085483 1.1066611314101724 -0.9881062405973418 165 177 173
2.3309012838598160 2.9283849886238342 3.6476225146956507 103 88 65
2.4061024972649978 3.0056588223351373 0.0600340301457459 108 97 79
3.2854655726738100 -3.2087485779012304 -2.3064361954666874 129 119 109
0.3806056599864961 -3.3140461048263901 1.7072666270269674 68 38 14
1.0591091596316309 3.0032656106803444 -1.4434794935714266 21 10 4
-0.6834705339350419 1.6609270266759739 -0.7821799504520354 191 194 199
-0.5050753271435250 -12.1510057303697288 5.5854976541376553 51 25 0
0.8783976672443401 3.0383627214855755 -1.7268624264009167 16 10 12
-1.5629878708543725 2.8616380626809446 0.2414087752434610 32 42 33
0.5131768209934187 3.3189529781239067 -1.3208284994388058 67 57 45
3.3926390031700171 1.8658601592608541 -4.0485811471315447 151 145 131
-0.9578102065880109 2.3526216495423493 1.1416364045562146 56 34 10
3.0636446831907880 3.1166759815248044 -3.1527230946617997 117 108 93
2.7946785061782782 1.5733181214258920 3.7888960701612882 117 76 14
3.4958952133143435 3.2061532313705050 1.5871353342278598 110 98 84
1.4223455255196049 -3.6098826765071399 -4.9208583991274377 131 107 63
5.8509230276059725 2.7737402531342119 0.5767412964589511 61 43 21
4.7395945333413554 1.1859698605545150 -3.5071224022715595 55 59 71
4.1775353086937077 -5.9749541182648045 3.7578094321804794 143 131 117
3.2514493173648722 -4.3564240263362635 0.8187353794279900 140 128 116
2.6528011482503890 2.2385501149817850 0.9033543022209316 19 17 22
-1.4333086628681433 -1.7294460962864426 -5.7206766737531645 191 170 151
4.3311134916626752 3.0290442941824813 -6.9185966086150907 75 77 66
1.5056431910680708 -2.6040874912585674 2.5930458615066954 88 55 20
-4.1079665153982763 3.7426781588752864 -1.9498542056289321 127 113 86
8.4303134711181649 -0.3221550108408139 0.1912594891686597 122 109 100
4.8091791093248837 2.7414558683973906 4.1963256094536279 53 21 0
10.6134175404724296 2.7653002683234789 -2.8272522091184626 133 103 67
3.3371019490339058 -3.3949231437363978 -3.2859866922741747 161 147 138
8.8652144512319104 2.9138216295001222 4.3570689500888280 226 192 154
6.5850880973386108 -3.1761495208254993 -4.7048321602384551 58 50 37
4.1604867287577827 3.2542233200213428 -3.2431057982718112 83 73 63
-1.4883931391576422 1.8668988157552864 -1.5106869904422633 217 216 222
2.4809806234226022 2.0628998332020356 1.9723013837904757 110 96 69
2.4764852861928133 -4.2001990389337758 2.2712776762332054 133 125 114
0.8898906025075790 1.9151348212015633 -1.6483350696643615 195 198 207
-2.2899178743879958 1.0553042823824355 -4.8223458271928967 26 21 27
1.1438542207289808 2.1869565582324477 2.8366009736288000 58 85 76
7.7124833215286772 2.9301935488034849 -3.7285968356530805 117 104 85
0.0273638993047211 -2.5358504282549936 1.5662409732089040 44 30 17
9.4474577269692741 2.9994653468493402 -2.8767506494330375 166 139 112
-0.0945954063486785 -1.1077081444961119 0.6258921917227035 68 56 44
-1.6753864354475383 2.1020735986584240 -5.5390366414122250 227 232 226
6.4177487013564569 1.3767734667814457 -4.1504392383526190 104 73 44
3.8087316660799799 2.9228087754671619 -4.9794749291471998 42 39 30
-2.6042422731791772 0.4772721899420624 2.5069211205936370 33 34 36
8.6111539289243044 1.8683705956367398 -3.1456603765821169 118 81 29
6.3014966567029571 1.3522663679697100 -4.8422082901507579 124 77 61
2.8880149177291927 2.8563858012348193 -1.2062951823481840 97 85 71
5.3363273695881288 2.8790892682150484 -3.2020739162434548 133 119 108
1.6358330597922544 1.2542400148359694 -0.4768697261927552 52 56 67
3.4551332950872400 3.0258764809511951 -3.6723622581797235 143 127 104
-0.4344817271003256 1.1066215452600614 -0.4719212083237228 199 202 211
6.8680923643581222 0.1962965665913039 0.8238312819933287 45 41 40
2.9161433326806985 1.7380952066119850 -0.5679056926621767 145 107 58
1.8580249058990863 1.6350373746297575 -1.3065676066813441 144 130 119
2.1964281525363010 0.6361999793426301 1.2851605034259088 64 55 38
5.9459005167514274 1.0762016650792834 1.8887180900444993 178 159 144
-0.8081816757257995 1.6660194638801815 -0.5827107381082312 156 158 170
1.9861696133147051 2.7827449356115270 -1.6714220966091029 80 69 51
3.1503651031519802 3.2700372820646217 -4.0410522306719816 67 56 36
8.3281683390795376 -2.2007248444878758 9.1165012821760953 44 50 46
8.2879454818359211 -0.2293596566066409 0.1321382943326303 168 147 130
-1.8754595732147106 1.9824921420499837 -1.1555381008683001 140 136 127
-1.5134684506281817 0.7497096115914731 2.0941325858008222 1 5 4
1.7988407723661968 1.1592246183705877 -0.1115559590543373 44 48 57
4.6420548167555093 1.9267702104410427 -3.2285022792649309 36 49 81
8.7930520367360661 4.0029241735542005 -0.6635042113124741 36 24 26
6.3761147861415113 1.7414404227871041 -4.9632171097658127 98 44 10
7.1443558796081703 0.0162158516068487 2.6820428937593892 194 189 185
-3.9397415390411927 3.1278759231762558 -2.4460950287092746 124 116 95
-0.9155952862581171 1.4695139444634999 1.0097280599316134 7 6 1
7.5539253945907117 0.6442362775879635 -0.6628712622622093 130 101 21
1.2400462874840141 2.9302664658645563 -0.3029654106933102 105 94 72
-1.4789865830698075 2.1047973575114951 -5.6203990779451374 237 229 227
2.0146583114606376 1.2047185293177372 2.6325373573534749 29 32 25
1.7545123652470571 1.6112300452491868 -1.1965841445760892 178 148 98
1.9443723675524007 3.1185152408697911 -0.5265582823228686 43 35 16
2.9330334466736256 1.2749675923163633 -2.7520342437568552 186 147 92
0.9686089870912055 1.8315743467554451 -2.4032964525513574 224 224 234
4.4859451359340072 3.7073084199865303 -6.5608342250177687 102 95 79
2.9617774236221255 3.1694774003700039 1.2407577734385351 113 104 89
2.5464704120063226 2.7352165606260042 2.0274852142740807 76 64 50
1.1407982104693826 3.0159608390958610 -1.2154773477716889 44 36 23
-1.6425609206429854 -4.8704803999405186 0.7958869810585891 31 13 3
-0.6580475034762829 -0.4197022004882333 2.0000398948455937 79 85 73
5.5777074524397134 -1.2512453556018106 6.6053410139800794 194 195 199
3.1435459562095165 -2.8267395388126912 -3.8625265139499119 129 109 82
13.9691729241671325 -4.5271484288190971 0.1089288837534330 81 41 6
0.2644452916805257 -0.4902535148248068 0.3491936682810218 139 127 111
-1.1288494074073920 3.0611804459772434 1.9628071264764180 52 49 40
-0.5424927781899868 2.2150701071647672 -0.2202551729626109 72 70 71
1.7903763442571619 1.0345867814838892 -0.0869542996936155 49 53 62
2.7818665961531819 -5.7495592393639434 2.9033855397518726 123 113 101
7.3946685713719011 1.1168243818496861 0.5363990742875918 94 63 34
-3.2175874248396679 4.1759028174563930 -1.8225804597138553 84 73 53
5.8235052140211900 2.6423638090273163 0.4204135615181725 60 35 4
2.8780421967015450 2.8757246831645693 3.3894485089402120 89 74 53
-0.9007173568990485 -3.3904985353904067 1.1186467917251710 79 65 54
4.4009253085379401 2.8153474586899252 -2.8360150273832843 86 68 48
-1.2819716323679302 -2.5606097141204502 0.8464641578343727 23 23 13
4.4891864239461476 2.8864462782130680 -2.5453398235046913 77 67 57
-0.8808667374411887 0.6055403956243447 -0.0116534174828296 53 83 71
5.3513470177102498 1.6027696891987802 0.7692425833298896 36 26 17
6.2904043432953740 3.0504272663996730 -6.1034790056625692 129 116 100
2.1589500154612922 3.3675635911211073 -0.0726842011657438 46 39 29
-2.3229782246182671 1.8622893661752111 -1.8447424576571807 214 217 226
-0.0957959884652407 2.5246243896640257 1.6860822612270143 62 60 47
1.9049150686854048 1.0421467900307610 -0.0879561622480142 83 87 98
10.0272775340086255 -2.4976891407575996 -3.1694673611485364 150 109 79
1.6544809403732292 -3.4814741732882615 2.8445498405138201 82 57 37
-3.7072344502172161 1.5878809197065682 -2.9818969467633663 151 146 143
1.2586873195141375 1.4337562482462065 -0.5224605831478760 25 36 54
6.0287661230710103 1.6733745908872728 -5.5786628627139780 132 105 86
6.4235593848495602 -2.7482824310815954 -2.4529029688784201 166 161 167
2.8590476137566796 1.8242166422083157 2.7157232490672749 190 175 132
-1.2288555735624482 -0.0708323377926878 0.8728137145262701 50 52 47
3.7957650047019520 3.0467149124459074 -2.3019418657635367 140 124 101
1.4779831530316943 2.1512461477845584 -2.2668952338037900 147 140 130
3.9363561363457991 0.3528158268205724 1.7049065063961251 169 134 92
0.6707833584793318 2.1768158528162518 2.5637472116916360 67 73 63
4.2987931222556899 2.6343366546594851 -2.5569373746719224 100 85 64
2.9844077632200272 -3.4186790131088283 1.4497472139477918 172 162 161
4.4612813589730553 2.4727794909722185 -2.6841698836207044 116 92 66
5.7865829530801083 1.6180946085771293 0.0396692900931899 39 29 20
-1.1443439564052851 -0.2244166888166367 1.0760036362465828 66 63 54
1.4350906414712099 1.0464600173651628 -0.3837904838283243 119 122 131
1.9924230723531440 3.0772797662447733 -0.0598352786933550 48 39 24
0.0140902912775205 2.4466670243670707 -0.0198391842357662 143 140 135
2.2138679914705377 2.6542222163251301 0.1170520836468863 37 26 8
0.2442392196764318 -0.0833251845820991 1.1255536717260104 52 54 43
3.0455718379244678 -2.9589269920083736 -2.9921920496889252 127 111 96
-5.1152537667540807 -3.5959016784319311 6.3707332871121451 54 55 50
10.6184631819356614 3.8159100908237380 1.5460321077262502 145 107 36
5.3661002433386136 2.1701043243815601 -6.0810964851780662 140 129 135
3.7279984193565650 3.0690211568333581 -2.6090582556534962 43 25 1
1.3573211476800287 3.0087764500070606 -0.4669341171736288 37 26 4
4.5233225339528955 1.9038562898376430 1.9013573937508466 95 69 36
0.8491216817556113 2.0372043804882569 2.5441536153468118 58 86 74
6.0830351561176919 1.3583351139805011 -0.0808140118486379 80 66 55
3.3665073526316545 2.8732106418694197 1.4586099453980483 130 116 105
3.0455035585415877 1.9582717070672349 -4.0494403474989369 161 152 143
-2.3194841081299078 -2.5676164765399458 -0.1932064731021679 77 97 86
-1.1483242354961614 -3.0176430471608433 1.2697852931688900 40 27 18
1.5676802109231560 3.2312215348025921 -1.8356433992275176 57 50 32
11.7475802691016540 -1.7502593327816336 -0.4083477701723219 66 42 18
-0.5379201926191596 1.5567418476398982 -7.0977972814877894 6 3 12
1.0929064848074186 -2.6342073199084934 1.9196067613474239 78 57 36
-1.1028355934330618 3.0070551574925748 -0.1881480300138739 90 82 63
4.8731788338717381 1.1742218142662397 1.8447067844989129 157 115 43
2.0479971843785889 3.1288748450959920 -2.5226688365634669 136 125 105
-0.2899320103592257 -0.9809867069297051 1.7043377096619532 82 84 71
0.2575536261818452 2.0900692458210495 -5.9868216347193703 217 216 221
2.1446388694448082 1.0585256515750023 0.0494545818108251 76 80 89
-2.3784491763910554 -2.7500059903440306 -0.1971894362800753 61 77 67
2.5483957150522416 1.9569199291865167 3.3030645971507675 106 94 78
3.0843422746809681 1.5945967297141506 -0.6004476652381150 157 131 108
0.1984539218813152 -2.9475582511647773 2.0405972020089358 59 46 37
3.3628834137246635 1.4277426894644423 3.0770007535325030 143 105 32
4.8933207012868776 1.2700298284329097 -4.0018051742120440 61 58 65
2.3219142238151393 1.0054984121638608 0.1375111054105011 52 55 64
1.8247808328764727 1.9556043993550474 -0.8834122834699365 35 42 52
5.3309415366301147 1.6802855470075491 0.7151765876383593 41 33 22
9.7939345893860139 -1.7736602462196280 1.4533402445632151 142 83 7
5.4009880625931599 2.3029414643988173 0.9545746271620265 67 58 41
11.7725022830941519 -1.6241449994952375 -0.4217534625337608 83 47 21
4.7141028738631876 0.8046368777592148 3.0866753829094180 179 174 152
2.4158046801921316 1.5388310608539024 -0.3182745979291979 93 96 103
3.0957846194310044 2.9057878599474853 -3.6200804058225580 74 62 48
2.8205108810308386 2.0755037544231465 -0.3031924380154292 25 24 20
0.7915991218150235 1.9525294113473215 -1.5547227712636553 184 184 192
3.0199471811858389 -0.1534737391980301 -0.0757402756500361 114 83 62
8.4087937239452533 -3.1286568661614726 -5.5184572410483641 186 167 160
8.7658405706650413 3.1024953226785854 -3.2497612720114466 71 48 30
-1.0353082934361524 1.9696469689135374 -0.6381070256458627 132 129 140
3.9826413855838214 1.4582282829397220 -2.7030980761915488 192 154 81
-0.0054093277510808 -0.1590321729958369 2.0537275100366679 82 83 75
11.9240537953858770 -1.9591868711020579 -1.4223163135799619 72 37 5
4.6725449136498067 2.8082845567733470 4.0832299658649411 36 19 11
2.6195369621134006 1.4398968212694678 -0.0362143378801017 18 18 26
4.0369109388175497 1.4371845451616165 1.9655374795711729 107 69 24
2.7112401232715664 1.7434699355745045 -3.7299732749136836 163 134 100
-1.5433261002592185 2.9802009069907371 0.4534384032897960 40 64 51
6.0043519150581899 1.1122309123242697 1.8627655521243225 116 87 45
2.4128817823486894 3.0440787185226457 0.4455707272364672 122 111 89
2.7164414984570047 -3.2789534905719648 -2.6996795107051499 112 99 83
2.7906247538638449 2.7584672118465021 1.3149525420091532 66 58 47
1.9662143715099762 2.1869198650799389 -0.4058191299510141 12 16 27
7.2928910391117823 -3.2010364689399888 -5.2726359519215116 127 108 93
2.2633703169447354 2.7612090730878247 -3.9900906050019223 44 35 40
11.4968406308429341 -1.7517065226541206 -1.6218069901715217 179 146 137
-1.3575223778992329 2.0567294413505941 -4.8534114609291388 199 200 205
9.0984106901435240 -1.4564711199658651 -2.2855667169130700 93 68 48
5.1711237110570876 -1.2360582555241255 3.5063658896221011 116 86 58
-1.3492451758542354 -1.3202659873386724 0.7001652535040571 39 62 52
1.5667727291026674 4.0191057048621204 -1.5216447908627209 15 15 25
5.9468827325333722 4.6343172826802208 -8.6978940668393427 146 129 111
-2.7046408157980752 2.2294318323516866 -0.9307719253485471 104 93 75
1.3365739985398184 2.3511776785452159 -2.1551707107544895 155 151 152
7.1372842461987460 0.8817584847385532 0.2262120397341238 123 93 23
-2.7556583927560117 -2.9478612793997367 -0.3962758433248184 84 100 90
9.0637569590342899 0.1056879860643825 -0.6994523813483094 35 24 28
0.0230935560161222 1.4994941067906145 -0.4334448082265673 159 162 169
2.4143989227388727 2.9793484117609381 3.7470446371665878 107 94 78
3.0440580835570574 -0.5526907504873437 1.6360219208834099 208 199 202
1.9165696102179104 -2.5750803833748153 -2.5387289125668029 100 82 60
2.7232425476263606 3.0396169538643023 -0.2565122193889193 102 87 66
6.8680568566650724 14.0565656292286114 -2.8277376331316542 17 12 16
-2.3169976508119885 -2.0742660498990251 -6.1962209485718303 178 157 136
2.1863859163409765 2.8953517616101130 -2.3899448242886190 122 113 96
3.0397496065806688 2.8386677871695642 1.2273484133878252 36 27 10
6.1474968054304782 1.3488358038914248 -0.0646373193152743 30 3 0
4.8321169894905820 1.2592481508252729 -3.6782628458532636 85 89 100
-0.2959610861843130 1.7435664326907858 -0.5519497383131073 210 214 225
14.2058928811923106 0.4420492643931731 -2.7715202699428381 59 34 30
-1.1131939289508892 -0.9819758571459212 -0.1188705743263037 45 68 58
-2.6089499565084164 -2.6399741465869759 -0.3201252510907678 31 44 37
1.9551314097355881 1.4459041975689542 -0.4061840834067502 87 89 101
-1.2136660014067886 2.0096646233069126 -0.7197790871065712 147 144 155
4.0648727005766476 2.8124913161401057 -3.3397118314223913 121 109 93
5.8716213596877127 3.3851086992535544 -5.4674988840594869 122 122 110
-2.5159209354828032 2.7722039332558466 -0.4764238529340412 71 94 74
1.4009144218290490 1.0540359082652220 -0.2863729024489554 68 56 68
1.2995083119819981 -3.0501165806990822 1.2967061370994177 136 127 112
1.4725200455827656 2.5553907451080105 -0.4486415119653862 54 39 18
2.7382616062960974 1.1795852512811116 -0.0806238042394986 106 64 26
2.9327733914762240 0.9677437475891740 1.3410641132325645 192 180 158
3.4933603125697359 3.4004656457114506 -2.4943968993563472 88 62 29
0.0742126193482893 0.4576031357689488 0.5596529387215210 93 91 78
0.4488918156430400 2.3330000340303538 -0.9430832483246329 138 138 148
2.7204427402643296 -0.1495095329580097 0.2339226701264117 61 93 88
5.5341748274815297 1.9524828839498909 0.8199362173364604 61 52 43
4.4695589776963596 1.2228777672412496 -4.0498736664106882 92 100 111
1.2882904448657579 1.1162996473602496 -0.4540025656244566 139 116 74
0.6166132117281599 2.0236500250949545 -5.4217772842819558 186 185 191
2.9954982146697557 1.4063312249428428 1.3836637269809988 132 119 85
1.2850142162641152 2.4128237804484960 -2.0629851291588772 149 145 146
4.4382978861232303 -2.6869181270439886 4.0382946416819010 99 69 41
3.4604521188485911 0.8877252679804994 4.0029336414160879 72 68 67
4.2892960320997524 2.8456937709507302 -2.4707734151736225 80 70 58
-0.2874270414906641 3.2496493028655102 -0.4684282771191912 85 76 77
-1.8163472994383036 -1.7325979264190405 2.0124592761858153 24 30 30
-0.6417100134452566 -0.4155726205487049 1.3955287406852717 19 18 23
-1.2203006318171559 2.4320823600259320 0.9262296465955704 66 82 72
4.1250097627210272 1.9372676503897868 2.2343665534613830 52 30 6
12.6121966842637541 2.1998030203670518 -1.2547668569583603 147 98 55
1.6569483180537312 2.0789659309094208 -0.9888648937376099 12 20 41
1.1636389018354361 3.1729576297058144 -1.7222970292455779 38 29 20
1.1672464587801119 3.1667946444746313 2.5241953531417045 118 112 90
1.0697377667666370 3.1683793422100499 -0.9104055302570846 54 45 28
0.6775466878261451 3.0340329054044068 -1.0457408336784548 39 30 21
