ply
format ascii 1.0
element vertex 698
property double x
property double y
property double z
property uchar red
property uchar green
property uchar blue
end_header
-2.6718828659318765 2.3319868063223774 1.1224342224080015 197 199 196
1.0668848450012354 -4.0760371112777296 -2.8837067564540351 56 39 23
1.5885224659199528 2.0705293532334976 0.3426999235063294 118 101 85
4.7486532590918653 -0.9434979552486243 0.3554948827891521 83 63 39
3.2301454667267420 -1.9504856533232688 -1.2414861639208912 171 149 136
-0.3316503003620042 1.8836273302417408 -1.9103800072858805 48 49 51
-0.5901005800700010 1.9425987379701299 -0.7240597192596488 72 56 43
2.4725917571531801 1.9543164219091300 0.8551383391749822 120 103 83
-2.9342195647145934 1.0324366506642859 -2.4719863706711012 58 59 63
1.4460702427074994 1.0920102709789208 -1.5954326004340820 0 0 19
-5.8244320869184527 -3.0789345129299348 1.4807962202130844 58 47 43
-3.0762620855778415 0.8765038657334397 7.5090643901493586 66 69 78
2.0909381991621241 1.8828143208574999 1.2467037937814118 24 24 26
-2.0786632732740831 -2.1540352790671773 0.8484696508003580 151 143 140
0.4195542853271804 -0.8501883007084311 0.0980230418553490 170 161 166
-1.4329548375505821 1.9470309285201808 2.9143396074223777 173 156 138
0.0313649113567060 -1.9428105504911790 0.5349455038393666 169 158 152
0.5406259315981201 2.2211919722483788 1.5152738460697999 152 128 102
-0.5084985021331818 -2.0480259048336893 0.3148649566939972 47 37 35
-2.8359379932576125 1.5407740870625397 -2.0852828150693492 119 95 71
1.4238223380814667 1.0473905221041493 -1.5904088456567005 36 38 53
-0.0605814135218853 1.9130092968727288 -2.1187590144121375 104 87 59
1.0350362919569507 1.8754158976854935 -0.0018879416136412 101 84 64
-3.5197798790740955 2.0182516431534130 1.1928360865767929 59 63 66
-3.0809472780902394 -0.7128873064670397 8.1447152445697029 62 61 69
10.7373708305844406 -2.3771988952790348 3.6435404753411333 32 21 1
-2.9960780851117321 -0.0155410857417352 9.6701821578433673 102 106 115
2.8236575148813423 1.9736122562071694 0.3256264599866839 95 73 52
-0.4501610907399679 2.1645383486529179 -1.8586643438571195 122 97 77
-3.5361291155001182 1.3292372293925825 -1.8583621489527042 149 144 140
1.7116314057543520 1.8548945404322636 1.8200913620862298 121 118 111
2.4982538103385421 -2.1198369144395963 -0.4992777810218329 106 101 108
-4.5817290120587053 0.6749634401394869 2.9020637623103585 126 125 120
2.3836866266089198 -1.3288801529847414 -1.2132474819249939 5 2 9
5.6634550990430190 -0.3250233461545826 -0.2093685880500922 68 65 58
-0.5030297626620270 1.0870541870895802 -0.2543297076059497 152 147 141
-0.2170026034489028 -0.9870594110462941 0.3059245490141541 147 138 129
-1.9468753912957917 -0.8832653704704717 7.2677816712184713 22 11 5
9.9844504175771380 -3.3005466568091939 -5.8927793728166895 28 30 42
-3.2671247288257788 0.9219166345449006 -2.9586462519771262 16 17 19
-2.8520125065746917 -1.8773741308773051 -0.4320239344966355 116 107 102
-0.1524175375103791 2.4077848269094799 4.0125641717515457 173 148 117
4.2743292464701614 0.1679160284652719 -2.4939224319474098 64 65 69
-4.2238395956131152 1.6727597105725156 11.2662044355541386 148 155 163
-4.6320562351918584 2.0954227746446858 0.5889089339581653 66 63 56
-0.6831216185478667 -1.6984045438767437 -2.1534741981495253 57 39 25
-3.7931915314374969 0.6445857011180235 2.0711021465234150 68 71 64
-1.1934537164773018 2.0479085931330028 -0.8685752029010707 90 77 60
1.4896026661362933 -1.2412954476119269 0.3490091649872027 64 46 42
2.6416141548959202 0.2933508707414980 -1.3159249418504895 12 8 5
-0.5742891014333971 -1.8657411524253686 0.1753577478207457 128 117 115
1.9128373740226747 -0.0025236706146599 0.3456954562767866 196 159 115
1.2909445150101393 -1.1617022559219914 0.3234478881593023 104 86 74
0.8063248708441808 1.6824816626653125 0.2618078131142486 86 65 44
0.7072763864571388 -0.4706154597475805 0.3902046308704082 185 184 189
-3.2391108730407283 -1.9348750017199836 3.9915069235256642 159 154 158
1.6752267421233877 -0.1492108601885057 -1.3278590304900826 107 16 15
-0.4444207522179551 1.9293523583202381 -1.8640006094262687 82 71 67
-1.7713932765551519 0.9208878957478531 -2.2918896568102478 0 3 6
0.7780651036728969 -0.4567922420166949 0.3407048459885241 105 99 85
-1.4198667326066103 0.8635965810344005 -1.7520209917352496 53 48 42
-4.0992829913032622 -0.3333816061661312 7.3441862493374215 80 58 44
-0.7790254320952503 -1.9410457579079643 1.2254267474308405 86 76 74
-2.5884370770794836 1.6822851317422101 1.6293456703571561 80 82 79
-0.7333712448132080 -0.3023319656466016 -2.1416728550661510 88 71 63
-3.0862992368995514 1.4494404058790107 0.4551445656776417 118 124 124
-3.3550852255837760 2.6645167157303846 9.0940752853982936 114 102 88
-4.1322906853883383 2.4982675229724625 11.4844538487425769 121 124 129
-0.9129741097960298 0.9673627699143267 -1.8883253115903460 60 44 31
2.9396631898095582 1.8472313874639155 0.1558134995445284 101 83 61
-1.4373351088048196 -1.3044789900041054 -2.4076327168345362 132 129 124
2.1141127928442738 1.9166666173131752 1.7493723636354637 128 125 116
-3.1524609371598724 2.1502843408503560 -1.8830987660675265 139 112 83
-0.4109623054582487 1.6815511920737620 -1.8765756112681615 19 17 18
1.1326143395986425 2.0539018630708346 -0.0623697886334149 130 108 85
-3.7739121386354828 1.9030408919917969 -0.2300244771475854 141 114 93
2.1663080685753244 1.4438627595886742 -1.4049120886557258 155 153 154
0.7946013620957999 -0.2763790277811884 0.5231275527451433 96 96 96
-1.3270590593627660 1.9037062653974466 -0.9347554571363416 84 68 52
7.6396904622504511 0.2790864204662974 0.1820088997565176 83 73 63
-1.8738174172516631 -2.4725630798996781 2.4204162290561011 170 169 164
-0.4978110968969196 1.5229584628396884 -1.6829818164387573 47 47 47
1.4789302215763611 -4.5587719121116166 1.9778802344582369 64 45 30
2.7098071086794246 -1.5512662392635199 -0.9711438117165543 51 37 36
0.6176145025200551 -1.8294061772166927 0.6081960602798689 36 23 15
-3.3621615285460060 2.0977502405628270 1.2515199822862277 153 158 154
3.6918661151363210 -1.4580785042963920 1.0191667855238300 42 29 23
-3.1324719074754466 2.1554908700212057 0.9511491266621309 194 197 190
3.0752119783524163 1.9889959588028547 2.5332064316417084 40 40 30
4.0270653342141225 -1.1049043346722218 -1.3781019194003352 136 132 121
-0.5363057534526855 1.5290701791725176 -1.8556508627355934 3 3 1
-0.3576689109845095 1.6486628301260875 -1.8770984167138152 85 74 68
4.5493649612080969 0.2675022940455413 0.9451739953609228 89 79 67
-1.9968856952569887 1.1093159843714482 1.5736837254482716 87 87 95
-0.9450358341293282 0.8266522181613865 -2.4384553553554777 85 82 77
-0.3138260118265227 6.3925413521644918 0.0526313325090609 51 33 31
-1.8594239739787135 1.9491838261574235 -1.0322922766335763 175 157 153
-3.6331783524457566 1.6165367320268071 -2.0567042213374997 70 48 37
-1.8160768269743406 2.0327441719188055 8.2178957996150093 49 37 21
-1.3626883214620276 1.9592763194014045 -0.9275737279846468 130 109 90
2.4808999076936269 -2.0651587020986697 -1.2855643497268134 30 20 21
-4.4874723117340061 1.7522437874495034 0.2212357322179692 49 39 30
2.2363062911703118 2.0892042305721490 0.6153820811380347 111 90 63
2.0796000251014086 -1.3196377818552276 -1.3489052518343028 172 170 173
-0.0700108321233818 -3.7085101737088766 1.2362918464710546 17 8 1
3.3218940913120631 -1.1433261324968631 0.6666358891474828 48 34 25
0.7652205879753441 -0.4087333595300676 0.4055649565496542 111 107 104
-2.6086833209241638 1.8558410586721441 -2.0614433992121040 121 94 65
-4.5553776515126527 -1.9474195938906174 4.5973829568689570 108 100 97
2.3201526046270189 -1.3821301008773625 -1.2509074854993039 144 142 155
11.9112809674195930 -2.5888392677431487 3.7085539682527839 99 88 68
3.6069013998435557 -1.2367571277316833 -0.4334516025947344 75 57 43
-0.7613999464833396 2.0302501673463960 -1.7663595501405953 150 128 105
-0.8159033561177187 1.4903388466094034 -1.8402191414839137 86 68 48
-0.8640513490895954 0.8564522178727672 -1.8193782844807265 68 66 69
-2.9784004728838709 -1.1909322859394817 -2.3223412731891822 53 35 15
3.9683072168777747 -1.3160372813343755 0.1216550491031173 160 150 141
-3.9761672485927879 2.0941108573159415 10.7782099018319020 115 116 118
0.6636489856017542 -2.6134456142989873 -2.1932397891411113 77 54 38
-1.1526785346594763 1.9656589484652038 1.4894264044465588 196 204 206
2.1268378887380637 1.6547808421272796 -1.2875997411913900 59 40 23
-1.4463789024773164 1.9387392994281707 -0.8271194718010161 176 169 163
2.2670686522650119 2.7717928023930192 -0.4265458912964857 129 105 81
-1.0823720153839964 -0.2373955727335765 -1.8721928584248462 25 28 33
1.4270440494628234 1.8785041459084399 -0.8317264499709128 112 88 62
-4.9430506448022316 -0.1528108678885816 1.4216509771394750 213 216 223
-4.5854863341123790 1.0791626286226226 1.5384642446095318 184 177 185
0.9924046644149501 2.0548081598978460 0.3929654427875107 82 60 36
-0.7130472786240910 2.7777007336435182 0.4172205964485857 171 155 140
3.0972727587889111 2.1225898840030895 2.5514866251412065 97 94 85
-4.4617229869086206 -1.0461943454674445 7.0637683308722004 131 126 122
2.1895251003088845 -1.5167406752983508 -1.3379098860128678 131 126 132
-6.2010308222316119 -1.8496664771591815 2.4760669096443753 105 87 73
-1.2737577456039439 0.7423833285585181 8.0473481253006938 120 124 123
-4.0207503369156505 -1.0621627428321974 1.6983336610176198 138 135 126
3.9874076376981682 1.7625959883622588 -1.3871144396785113 53 46 38
-6.0038462936154344 0.8222453831769259 5.7101820477515135 59 52 44
-2.2415298456522414 0.9138434099436630 2.3973045484935445 111 115 126
-2.2029414893477908 1.5905393590781127 -1.9102040947791259 145 119 96
-2.9993052567641900 1.6275005708520351 0.7229452482805225 159 169 168
-5.0720379545809644 2.5664791742955528 3.2132232133492105 86 91 85
3.8321105174669472 4.8345057041537940 -2.4334366241655458 42 20 0
1.9542071169132045 -0.1757705657294877 -1.3420929867157685 142 149 159
2.1288640940334189 -1.8923182762556343 -0.5812911356639358 97 88 81
-4.5673260208031010 0.4129185845723166 4.5028143332269837 57 45 33
8.0588247805492479 0.4382726946628233 1.4458989253268610 41 31 21
4.8375890057813624 4.3453193569938904 -3.0353830026595134 242 247 251
3.6255550574332585 1.6987757625256132 -1.5060086100728596 57 48 49
2.3658019956574541 1.4640781396214668 1.4535802667955990 116 112 103
-0.3400202681601953 1.3613267432887433 -1.8826028699530144 17 17 17
1.7394726582274835 1.9409053926571072 0.7385368301519402 151 138 122
-0.6301038203019814 1.4844231236537946 -1.8406880709865052 17 3 3
1.0419815117545459 2.0034385571027840 0.0511989377673778 100 82 60
1.4445660818869541 -1.4472693696326375 0.3275645101629051 65 49 36
-4.3396233553943082 -0.7788393632121318 1.3369830556473596 231 85 95
1.8595532360057299 -0.0378089176174466 -1.4151377002760461 72 20 24
-2.0390904578904454 -2.1068979511490276 0.8826656265894300 156 148 145
-1.8756372575748754 1.2025984934275555 3.0931512250442110 107 98 91
-4.5441734984397089 1.2551870740477171 2.7752177487732670 92 97 100
-0.9087030987128314 2.0510214536302125 -0.8151929758637462 137 113 89
-3.0352208805368699 1.6441291048920545 0.9318848903796030 11 20 17
-6.0896007596189081 -1.0024009135021328 5.4297924879453152 241 239 224
-1.5687691732413818 2.0922315998191023 -1.8430082983014366 138 112 85
4.0404089011965825 0.3536113891161285 -0.7284738257159409 22 9 0
1.9061144996786332 -1.0980048105478801 0.5498733332176776 13 9 10
4.4386048920227781 -0.9668693046317424 1.0715488867614997 75 59 44
-3.5279197059649410 1.2215908754387610 8.5434672979259112 135 134 140
2.7894213704001345 2.3193915596458066 1.0238228857048326 104 88 62
2.5185445116733298 1.9135631170748326 -1.3488562343021084 42 23 9
-0.3411253001410635 -0.9941767006458982 0.0765590334927578 39 28 26
3.4805878097151743 -1.3761345021714313 -0.4247831452347418 80 59 42
-2.7347503673273885 1.5478521904898637 0.6177337950613321 169 175 175
0.9999404000417811 1.9554117782241818 0.1473690396260826 94 73 54
-1.4686491718643633 1.9596222239163281 -0.9607536720992829 92 73 58
-2.6331535902501004 2.0287089074761502 0.2132586284441263 126 127 122
2.4468488798223289 -0.9790764526911943 -1.3439730017715401 103 90 81
-1.3471390023284628 -0.1884185038755573 3.3278370965656063 89 90 94
-4.8760493703272045 1.7466588155224194 1.9112938139708333 130 131 136
-3.2298291830895831 -1.6899976009350928 -3.0698963675660953 79 67 55
-0.9100342743839748 0.8151447301545726 -1.8376947259770577 27 28 30
-2.3490091372978767 1.5605632810289021 -1.9899642230910461 141 117 91
-0.8214400857111664 1.0909108000393446 -1.9482823933332545 105 82 64
-1.1440590127853627 1.6856655846373763 -1.6624338129015266 147 123 99
-2.0777543236497915 -2.1193973890578284 1.0769185271094575 156 148 145
3.5641293233332312 0.5178206618268150 -2.3743898673811423 136 136 144
-0.9025646107918212 1.8810419862848180 -1.6220870457846592 115 89 62
-3.5847922803471448 0.7424317151886268 4.4687317554755754 29 17 17
-0.7659888976063054 1.9313938161594231 0.4633846771876997 212 201 197
1.9493849555334433 1.7682234553278715 0.2171590859635657 103 79 55
2.2890929088044056 -1.9166188798607189 -0.4084890393788361 132 129 146
-0.8851368941245684 -0.1606738018013046 -2.0764383833943683 81 85 88
-1.0372406220940305 2.0423832401351660 5.9520129441370875 108 95 78
-4.3900687276049046 1.2217818853577480 3.0693655057936846 74 79 85
-4.7497310511941784 -0.7374040261240643 1.1508232773493767 69 17 21
-0.2831600984114856 -2.8728400541428236 -2.7839625543161066 51 34 24
-0.3765754680451507 2.0797765449901155 -1.8122747954226308 117 93 67
-1.6315429309424734 0.6941800289894475 -1.8383145756193708 4 8 9
-0.2686620296793825 1.9676005115186630 -1.8003519449614589 71 46 39
-1.9175802450681394 -2.0460552780031560 2.0987221008332018 202 201 209
2.1033357075006456 -1.9197267283682637 -0.3508609449216192 108 98 96
2.3694831048935887 -1.6097006848002793 0.1430874482825071 98 90 87
-2.9972950365269453 1.4418065853771889 0.6736602496698247 94 102 104
3.5471245380077110 -1.2736821396688494 -0.6212067085538632 39 23 10
-0.8427654450824261 -1.3216717703465313 -2.2283141154129260 142 123 117
1.9824055682047561 -2.2024164163149540 0.7315760136286107 66 47 40
-12.3999251249852307 5.4009231417845802 -3.6476419508638318 86 65 48
-0.1842969203605444 -2.2875227441677755 -2.3837913613238570 56 38 28
-0.8595122353317437 1.9779838992305894 0.3542408557681565 176 171 165
-0.4179378062213450 1.6984731624849652 -1.8833601754767790 29 27 30
1.6206541337263249 -1.0002550681723872 1.1882667155782707 160 150 141
2.7444488786103829 -1.5491093875453275 0.7414025868974425 57 44 36
1.1175051575013002 -1.0086641781848666 0.2802287113424998 142 143 147
3.7614559097601163 4.1302356667446549 -2.0012620373442487 112 90 67
1.3297131645731901 0.1965808176746577 2.6148567657258419 202 202 212
-0.9009844527956804 -0.2351501441869554 -2.3638059678543173 100 99 94
-1.2625903636541107 0.8987296476808573 -1.9380105322723393 34 38 39
-0.7534416777681003 2.0747669504531951 -0.6445089138010349 214 208 208
-2.2273497748613589 -2.1057023795826493 3.5153696397649914 224 224 224
-2.9043260044463257 0.5541215813952313 -2.3660408578936516 116 117 121
2.1113722162341380 -1.8881941322439999 -0.3032067547465332 114 105 106
-3.6560853695872342 1.6347211060803055 0.7827625018779786 124 129 135
2.4932854837048568 2.0735142643909148 1.0685714356100990 144 127 109
-0.7516139581987750 -1.8895565981104534 3.0434621311853269 255 253 255
2.7951708302934080 1.9378879732366114 0.5406863621481670 113 96 70
-0.9221954804335456 0.8516241044180846 -1.9569509491106900 39 44 47
-0.5120110793664142 1.7888513654203024 4.7335571070277771 47 28 21
-3.4603843711219930 1.6572174472452710 1.2300034337377721 37 39 36
-3.9972143039757224 -2.0005274069704329 -1.7945049394281036 148 144 141
2.1897524397786658 0.3457889575459399 1.6718204391860132 146 141 138
-3.0670886452720909 1.3266887081287084 -2.2378465908479783 124 100 74
-3.8370983584457852 -2.9646361295672006 0.2044958378526491 149 140 135
3.8470818958166855 1.3523034236860916 -1.4266582737467091 56 38 24
0.8051735419398198 -1.6218136516068666 0.2225002668471024 74 53 36
2.1344573552755888 1.9519790596101922 1.8972768064736110 108 105 96
-3.1950950888203833 -1.6530157743724372 2.7893297652028193 147 145 150
-1.8360313424261341 -2.0263617259482025 1.8844211323982094 184 184 194
-1.8661083498570870 1.9325209788065858 2.7652167323786410 81 78 71
0.9612045649259275 1.6390496683455018 0.1994349038831661 53 32 13
3.9214742040948365 1.2342306516152486 -1.3677912875253331 44 33 27
-3.8016027377138393 1.2083069674673224 0.7725717324117743 142 145 154
-2.4662344187098082 1.8830062343252603 -2.0590974315006081 116 89 60
3.2625930489670445 1.4744085796402997 0.8551720312233174 77 66 64
1.4980938000943371 2.2409197917042767 0.3923325152023358 37 21 8
2.0068812096759814 -0.0723297888785759 -1.3800218477162549 127 127 127
3.8164512871212906 1.8880822772272712 -1.0200805552727559 69 57 43
3.6160745141849149 1.8061252919707094 0.8123430382125442 31 13 3
2.4898681905715625 1.2902110503541575 -1.3166239159317736 44 31 38
2.1622510076430186 -2.8757384100162993 1.1752205858459439 73 55 45
1.6332775052403403 -1.7156929548753037 2.1294643042036703 177 167 168
-3.4073282204327908 0.8199284430653232 -2.5069650141653188 6 7 12
3.8630446752556535 -1.3239352924573147 -0.9122776406713820 59 47 47
0.0006874781247667 -0.9865537763115209 0.5218269956841607 32 17 14
-0.8095997674694027 1.8891078633066243 -1.7088784594583168 77 55 31
3.7705577405289974 0.4900931536327401 0.1703008267744280 86 61 39
-1.2681170718404107 2.0043532578473644 -1.7711470269595482 124 98 71
3.1637428931921496 -0.0772001878404012 3.1954700301669994 255 247 241
-3.3253295734310893 -1.9349837058047323 1.6064850904970998 161 161 161
-3.6312269393167806 1.1386562048656323 0.6018168143214192 143 147 156
-0.2907308441437236 1.5232186698765076 -1.9063841282105292 51 45 47
3.0680937661632730 0.7942797713967953 3.2414713765169303 27 21 23
2.1714094300638234 1.8171403164085127 1.7906206626124088 132 129 120
0.0405835317944913 -1.9919541504125939 0.4034400958576317 138 129 120
1.7010147265924980 -1.3796195536160270 0.4451231625032762 98 95 102
3.4189998225319802 -1.9120407129425627 -0.8698482539133201 49 32 25
-4.2293154511804714 1.9768124432331124 2.8854168104442213 132 136 145
-0.9587104015455773 -3.3104686116929956 -2.8711973918767564 53 31 20
-0.7285440599165585 1.8179665790125834 -1.5970476722076206 113 91 67
-0.8337890159207575 0.9251668591902594 -1.8302681408252461 116 100 85
1.2295564994691843 -2.2375493571478682 -1.7717804198236204 74 47 36
-2.4616752269940010 -1.4598295375147365 -2.2237987229293696 104 94 85
-0.7361230484063321 -1.6383295341341113 4.5930710666070667 115 105 95
3.6952868509785506 0.5489546686919666 -1.6532169720397087 13 12 17
4.0265568688372886 -0.3830820368473237 0.9627482682629595 53 41 25
2.2163585545579516 0.0408328186154274 -1.3468869194122057 98 70 49
3.6284863657320270 -1.0532262592707697 -0.3307738698198798 39 28 22
4.5291236930653822 -0.9458582579914889 -0.6490190981274360 100 80 53
2.1983469875752832 -1.8778304930913516 0.6597136780846564 65 54 48
0.8833598613851762 -1.2055935332425103 -1.5417954601574162 80 66 57
3.4397844378483926 0.8629300084050994 2.7665057052564777 111 106 103
-0.8777008175658588 0.8123359449727396 -2.3154053555518961 79 81 80
4.0809080724852747 1.9193483233867763 -1.6988972344324456 69 58 62
2.7020422449102282 1.9253318115898015 2.5354461294175943 124 120 111
6.3861116116411596 -1.5988049813662981 1.5980250577931032 84 77 59
-1.4148740352616684 2.2691550645199339 3.6853197759651715 170 144 117
2.0855377311471321 1.0801119450910404 1.1131357423759303 114 111 102
-0.3451478125953308 1.6293143881272429 -1.8740491435660427 98 92 92
-2.0753826975079055 -2.0315534830368134 0.7139931251719910 165 158 150
-1.5267647073709480 -1.2053686560481625 -2.3488401844474334 152 139 133
4.3623193841743033 -1.4185639071887512 1.3703042822732936 99 85 72
-3.8713646988990797 1.3916453282263395 0.9603918453166095 135 139 148
0.8474568284309837 -1.9630508317651489 0.2013798750850782 25 14 10
3.6011318713621634 -1.5400077034054402 -0.4794546983731095 64 47 29
-0.5465731384235778 1.9771256058744595 -0.5882901725368554 214 205 200
1.1100638776944076 -1.0252586573600357 0.2738355651837583 174 175 180
1.7964780922033987 1.8934429736865521 1.9772417620747182 121 118 109
1.8702971316567700 2.4672783241789271 0.1150609883634760 99 78 51
-2.5797101480577842 1.8172423103108508 0.2436527523716640 185 183 186
-0.7057573325309530 0.8405833148088176 -2.1634549825692173 50 38 26
1.0069070131869069 2.0427319270485054 -1.5126902875435073 168 144 120
-0.4024269127816327 1.4807905135299733 -1.8498452111879446 22 20 21
1.9543856256258649 -0.1575773434899762 -1.3951407247327867 188 191 198
3.9228664331816629 0.1560508880322032 -0.7193038445585106 41 21 12
2.0135266255465885 1.8450927155519028 1.0923983800626222 121 121 121
1.4251730933056646 -1.4502043005465211 0.3257830554625818 47 24 6
1.5283362357204044 -1.1670572155338930 0.7140395795850918 160 159 157
2.3601387776454272 -1.3460041387852739 -1.3354990674886837 154 154 164
3.9084546702076066 0.5321706864813770 -0.0164396377446178 71 46 24
4.2439598083291354 1.7565774079997132 -0.8663322989501099 41 27 16
-4.2503438870011356 1.8266874016543211 1.3575000490209623 141 150 159
2.2512042559009364 1.8767206046754656 0.5585117387055384 132 115 95
1.7853742089301183 0.1643740422397925 2.9231739842610782 131 125 125
2.6563849300605362 -1.9076477933697111 -0.4293643304800158 249 253 255
1.0885621663566289 -1.5111588280507326 -1.7424473697741385 48 44 32
3.0921448380444096 -1.9824896870387956 0.1489423616679565 112 110 113
1.8493369961700930 -2.1269781190733701 0.7120152501697437 54 40 31
-4.5069948428216584 1.3784229906136449 6.0041041412454277 167 171 180
1.9614918848633200 -0.2092326962801777 -1.3854541461253844 198 202 214
0.7945972969548668 -0.2963979968793753 0.3987414588305667 122 118 107
0.0223793921280727 -1.1934441771377884 -1.6726586376185875 100 78 57
-5.0114909376794614 -1.4170312001928356 2.2250113936079958 132 127 121
-5.1029739597780930 1.5305262162434912 1.1644386637701125 179 183 192
2.0353619960338425 -2.2260191138016041 0.7610296148607106 67 50 42
3.8321899964452477 -0.9240385620071685 -0.8806909498610240 70 55 48
-3.3687415346931155 0.8898971012064598 -2.0715077892097931 119 121 107
-0.3587515154787400 -1.9086004922540374 0.1655419031637428 126 117 108
-2.8226486603719749 -4.1252406350118296 -3.7739081624773818 55 39 26
0.5186676042034424 8.6841920514566606 -1.4742487869940746 8 12 15
-3.9215893501608652 -1.5983435757582194 -0.4420313911637574 76 57 42
-1.0120713588412185 2.3249318136446493 -0.5018139917139537 212 201 199
9.8781110681321991 -3.0882045533355664 -5.3704632659617397 38 40 55
-0.4050566571467070 1.8179373696915087 -2.3472936433423222 81 82 86
-4.9084982700126849 -1.4080329433998300 2.1842913636220747 132 127 121
2.4947458004782690 0.0246062208068103 -1.3108048647084207 61 62 66
-5.3008552814817600 1.5605603794640830 1.6057772924005995 179 180 185
-1.2105476986311010 3.2901136316372619 -0.5373022423601183 161 157 154
-0.3510424412735285 2.2203301268828985 -0.2493172893212928 191 167 141
3.2360591442095172 2.1569022862916802 -1.0393950147505560 99 77 53
-0.6988663563822910 -4.9612296236881708 -3.6354581545320968 31 13 9
1.3493073156625537 -0.3860725435780142 0.5945356612677942 65 44 39
1.2784139923602347 2.0962467713785800 -0.1779227510894299 127 106 77
-3.0933424218973338 1.1706118005276667 3.4507922438322685 63 70 80
1.6705596505045075 1.8732396030460752 0.7863280545153148 89 84 80
-2.1307384068381903 1.8560899951374148 3.9118144252570537 147 120 93
-2.7773448152028375 1.5853048162356542 0.6954580314176196 161 167 167
1.9867899492517818 6.0379282204153037 -0.5467124462453562 12 13 15
1.9984999371413537 -0.4733572224053906 1.0749477415140298 209 203 207
1.1429628042460362 2.7498824441122305 0.9788600131203071 96 73 59
-4.9902961225308671 -1.5687926524010012 2.1714875461456540 141 129 129
0.7151697228792893 2.3506824833271258 -0.1664712398262289 177 155 132
-0.3218298254811509 1.3199145242148611 -1.9621241946930255 50 50 50
5.1072187727384426 3.8678952634324948 -2.3897880776115961 66 67 62
-2.2329179380219553 1.6106511877640124 1.4284327236178764 28 27 25
1.8845975386201814 -0.1764135913971752 -1.4388388890934445 147 139 137
1.4069048870934260 -1.4759433399842141 0.3203551768500430 81 55 40
-3.2430018979381665 2.0368838414962220 0.9837993450752740 41 46 42
-0.7150855311525876 1.8448444296522091 -0.8009204910610872 141 117 91
3.0203179300483236 -2.1980329210950043 2.9081444315938731 199 184 177
-2.6680765783923586 0.7086044125898651 -2.7422675710439854 49 49 49
-0.2075406264384642 1.6332949607560916 -2.1093556236873425 194 193 191
-2.4978782675019588 1.7000234655878070 5.2037265911193638 110 88 64
1.6115463892171926 1.3971827887540351 0.3638638679810319 151 133 123
-1.7873427343054564 -0.7989160227625268 -1.9306825961792573 185 174 170
2.6506725202210415 0.2618212082771217 -1.1860192001754726 20 17 24
-4.2639193200895908 2.3710855525982981 2.9545186739464167 70 71 66
1.7882431052270114 1.8750803626553803 0.9919111120961284 109 110 104
-0.2825548759877197 1.5310335901486762 3.5414734997093134 83 55 41
2.1297146785973311 -1.2888558008056208 -1.3585047896101938 108 98 88
4.7791154905001330 3.0608062879011784 -2.0453600501131954 78 83 86
2.0876598102051802 1.9294262291925670 1.1452443765138280 117 117 119
-6.8629076131378222 -0.9235092807289683 5.3696814983651935 76 76 68
3.9481781829532898 -1.0141722252305103 -1.4801759834687627 54 45 36
-1.6834414880339912 1.8986640884259156 -1.0329684640877983 80 66 55
0.3292543126015846 -1.5954395238088077 1.5083138379765715 79 62 52
6.6815304529228392 -0.8366138197596509 1.2419243144949332 136 120 105
1.9251696793916562 -0.1307215187895659 -1.4258646120297069 181 181 181
-2.8005412930552995 -1.2008860128305907 3.5576200916409126 115 109 111
0.6626431357793554 -1.7475372679534975 0.4465541008045641 63 41 27
-0.2338692216823771 1.8935051387894022 -1.7092843319637683 160 138 114
-0.4311535657786391 1.1006688946670311 -0.5366098888189985 103 90 73
1.6295739741571604 1.0360962463199546 2.5356896002068283 65 65 67
3.6126305720250378 0.2664387595785701 0.8060632802481694 41 28 19
1.5607694469247342 -2.0422507423332874 0.2447732703177364 62 52 42
2.1568252781871400 1.3540423064243468 -1.3551810881484692 168 165 158
1.8190380983704930 -0.0849839408519491 -1.4010745546723193 202 169 162
1.9162537986206187 1.9430448364664505 1.8325658025159366 126 122 113
-1.5102546385167073 0.8705035584663633 -1.9447165744629160 43 44 46
2.0237505278886996 1.8714570527409395 1.3327638729156734 121 120 116
4.1894136295844220 2.3079582043016438 -1.6303172276174769 101 84 68
2.8331246839425925 -1.7462181196829500 -0.6690975058468667 81 72 67
5.3319222150986993 -1.7810694094287167 1.4084538784980694 20 8 0
2.8467112541249153 -1.8060475707856540 -1.2591985928828411 164 153 159
-0.6050302839037833 0.9497726172458525 -1.7543813421988186 105 83 60
1.9535288637621331 1.8875271538650300 1.2580905726668448 62 62 60
2.2992577932253138 -1.5227191013115382 -1.2838238043965271 42 15 0
1.5459862832479903 0.1293761665701647 2.5500216516409537 195 194 202
-0.9290930918959369 0.7499101089972259 -2.3316325444171166 71 73 72
1.8991941910914616 1.9448494055891996 1.3232912880345200 116 116 114
2.2290407118775306 -0.6542573292535193 -1.2258074894974846 46 30 30
1.8423880016147502 1.8287847790878133 0.7090458045777409 146 129 113
1.5880829308208297 -1.9168403477190918 0.1674190123852664 92 79 71
-5.2193645925015977 -2.1742535678850490 0.0012382299754507 147 134 128
2.2042994825801596 1.6245670182805778 -1.2929814885242104 64 45 28
-1.7458594143011001 1.7368926328405747 8.1099441291805743 57 37 36
3.9755051097566114 1.7760345525477212 -0.9801094079151128 33 18 11
4.0809571340949313 1.4087834114319771 -1.0270343991952664 32 19 11
-0.6184270755149803 -2.0998691327502610 0.2780718817970566 134 123 117
0.9815678229795182 1.9409776786732380 -0.0837019729718440 170 149 128
2.3133807460941376 -1.4057689248317828 -1.1981514143244048 118 99 93
-1.1910043769519902 0.8695607325535007 -1.7563726614294395 50 51 55
3.5132147927200976 1.8529876344515903 -1.0825498831235076 86 72 45
-2.0297281473801725 2.1417392234386861 3.3300407063009843 118 115 108
1.9114383357254012 -0.1299903895395929 -1.4138375432734727 127 118 119
4.3585477343408261 0.4908528373882889 1.1955678095635627 34 20 7
-1.3406738481041021 1.3277033643452754 7.8072829391605669 16 7 10
0.7590338690171193 -1.8676774260308602 -1.7934908364198090 83 57 40
-3.0370450206647921 2.1268762354058914 -2.2386319474895084 114 90 62
0.3988838874230889 -1.2812137687414387 1.5158248778859540 181 179 184
2.0511583542632326 1.8191827277567714 2.2192701408769766 117 113 102
-4.0889712227541111 -0.9579028470841103 -2.1055101131017429 181 186 189
2.4737680525705654 -0.9737371506933309 -1.2829316880746600 15 13 16
1.0105978108601654 -0.3602174559722716 0.4898449843452856 111 88 70
-3.4507366515091835 2.2716955660570011 1.2544417642103185 196 202 198
2.1980821850897496 0.7161823650830931 -1.2623881136224206 64 42 29
2.4158488338176829 1.9012985433803935 1.4705816541316368 114 114 102
-1.5139839652983917 -3.8099199264523920 -3.4443779721386165 98 76 52
-6.3948000525557278 -5.0937291159919624 -5.2994440463361965 42 28 19
3.0309743028048208 -1.9497939551779317 0.9011413822958160 73 51 40
1.5635435529608437 1.8290366364144686 0.8515885853713797 123 116 100
0.7657834965270728 -0.3925660080956051 0.4367341107492386 159 170 162
3.8678375949956352 0.1413952966938946 -1.5210168462147360 16 11 7
-2.1717761580796870 -2.0305159564003987 0.8915445815909753 114 109 105
4.1375412693420772 -1.4971702712710446 -0.8052575010612655 66 49 39
-1.8662943866537960 0.9284769687074259 -2.1726142881644352 38 39 44
-0.3816393815754842 1.4873314844719661 -2.0759632745603702 26 27 31
-5.0392042773657737 -1.5607495669888409 3.4971978938606538 31 34 41
-0.6637187962177558 0.8878755288998726 -2.1086129143206014 67 44 26
-6.7720528513714910 -0.2601825412378926 6.1379662839640856 144 144 136
-0.7367973597639648 1.3990564096859075 -1.9458603848496694 72 58 49
4.6224242064826457 -1.6458894229927536 0.6392854246671567 66 57 50
3.2511230015079531 -1.2976708900460805 0.9467215912412589 141 131 132
3.7019360354020456 -1.2602883571444639 0.7629696365949701 43 29 18
3.7422852964760422 -0.9633876190494035 -1.2727799564511662 45 34 28
0.3017812485409482 1.5196975788857312 1.3046302344407827 150 125 95
0.9268069199577655 2.0354639170214726 0.0910769171107485 126 109 83
2.6988575627938047 2.1764013818088936 1.3177634873469830 29 20 11
4.1943370092496055 0.4843326765293573 0.1191465669645202 134 109 87
3.4407686261940129 -2.2070508363420900 0.8891649010579640 70 58 58
3.9072364664003789 0.5542046521835553 -0.2712090627982562 73 48 26
-1.1610463669957722 1.9230663668894461 -0.5157241793897243 163 158 154
-0.9149760421464344 1.8893332789390616 -0.8128787942923463 144 127 109
2.3884165242225288 -2.2899839785194001 0.8950332783304703 77 60 53
3.7640726316493036 1.3583462053844801 1.6289314945837317 20 11 4
3.3436103217534892 -4.4217773125257773 -1.9553551656849086 60 44 45
-0.8483905795002398 1.9987891352648319 -1.8069742346569646 70 50 43
3.2723109658271561 -2.0357173697285029 -0.4340705166226015 132 128 127
-0.0761387652818773 0.5369069637032385 4.2935980814295709 121 124 129
2.4661317263590354 -0.5664762836020030 -1.2775999636340094 51 42 43
1.7110725538465306 -0.1972001199921264 2.5915043296066109 225 224 230
-0.3932027237225859 -1.9168054726866823 1.7696231724855518 117 108 101
-1.9445502225028131 1.8351777612900777 7.0343153650280588 75 73 74
0.7817797062007382 -1.5201932850151652 0.1416133848965717 163 150 142
-0.5065148307475894 2.0246973908638144 -1.8158071221903975 124 105 90
7.1135813612172027 -1.9501805962247636 -3.4559258447664725 24 30 42
8.3017399447680571 0.7160932147014031 0.7968984725847009 47 38 23
3.9760560380750820 1.8374172586112403 -1.4176269626827049 36 31 28
-1.6164338592458556 -1.2697274259255422 -2.1731673959286470 68 50 38
1.8702649383868355 2.0109981555833518 0.8221457037490856 154 138 123
-2.6021905917565999 1.6493301300447036 2.5538271597911533 102 106 115
-1.4091023716927349 1.8401360136444294 -1.6470227411735963 178 155 124
1.1404734550176543 1.8817162557997558 0.3562438331519797 72 50 29
2.7309204199506638 1.1491802120240906 0.2682085806034012 90 72 58
4.0603504054196842 -1.1247504922768090 -0.6465144572668944 68 52 39
4.2676635300457786 -1.1446757824111988 -0.2603423292276149 29 19 10
3.6643396968593525 -1.2731868298921254 -0.9507975685246793 17 12 18
1.3724682296092263 0.6237771110630748 -0.1343521889725893 28 11 1
0.0481600244910509 -1.8945212453395697 0.3445752798761713 168 158 149
2.8471200521375102 1.3914608689273729 1.7322011157383501 75 70 66
-0.8956894148599939 2.1745213545580646 -1.7335716812606143 126 102 74
2.0885233996160988 1.8677662673543503 1.2304137659300212 24 24 26
1.6780824636578504 -2.3573228109015165 0.7532409772236540 61 38 30
0.8891671192920308 -3.5831611867816244 -2.4283991187128686 36 17 10
2.8618065391022731 -1.4547561140714977 0.8118439932276506 74 61 52
-0.0274813158568579 2.6189939431469362 -0.7866763205889316 38 41 46
-6.2745137108629594 -0.9490208191495977 6.8236862829447302 169 160 155
0.0107380348148849 1.9916802493540731 0.8908073177822236 176 151 131
4.1176827003204393 -1.5874190058700006 -2.6920575407313594 67 64 73
1.6825785580725012 1.7162400176438284 1.1597707869124705 129 126 121
1.4313579300395531 -4.2912533381765492 1.9505750368236525 64 43 26
2.3889002605730840 1.8914707832930355 1.2546233253778745 118 118 110
-3.1591051944442969 0.7645430681718900 -2.2466161319301379 202 203 205
1.7522777542864074 1.9524065020412589 1.2870783083293988 106 105 100
-3.3863974823554024 1.7975540884555832 -0.4821849248333047 187 171 155
-0.3260990001886908 1.3904967610850445 -1.8958197252820361 17 18 20
0.8892856870966873 -0.6912333111372789 0.1953188496065713 119 103 90
3.5213559566935575 -1.5099427653830173 0.9458336252160838 74 57 39
1.2483877788527740 0.1128099131650452 2.6765003823304943 181 179 192
-4.5817839723061242 2.1989177752413238 2.4210056045289163 77 77 77
-1.0444424297697092 0.8628969790260317 -1.7846840845259289 75 80 86
4.1610042673935270 2.4177670389994805 -1.7922159102852711 101 95 71
0.7623289448168636 -0.2812677198996584 0.4500633687495589 105 107 102
-2.8264983318294989 1.7856181635642501 0.6116290701954393 210 216 216
-3.5099760991799083 1.4438424015684543 0.6095007296792113 89 94 100
1.8749738943584717 1.8928590153237390 1.1110104837956278 98 97 92
-0.0131082713599595 -1.8994551096531018 0.3769325971756269 40 31 22
3.1080323548468387 0.1360300248489148 0.8119566333728520 51 51 63
4.2116200930869718 -1.4844370196924737 0.0740277426180329 254 245 246
2.9938148136665474 -0.6628345451307667 1.3615796340532351 40 29 23
3.0454332332996596 0.4073806726545769 3.0699702448088924 142 114 100
2.7712640896631164 0.0202653028439197 -1.2281557984299898 63 64 69
2.3922281126403937 1.6475279862767991 -1.3267025149483491 55 28 17
-0.2752429165153666 -1.3149752131344845 4.2112424792344108 235 231 228
1.5784569800250960 1.8907972077680781 2.8275146446017141 53 51 52
2.6594137319732121 -1.4427080983733214 0.6632674227691717 89 71 51
-0.9597778188261561 -0.3210885667314591 -1.8274431337767434 29 28 34
-1.2584738435557934 0.9021037887354602 -1.8796710340322595 55 59 62
4.3468433197930532 -1.4170810939344194 0.9189694622656571 23 14 7
2.2136000916691954 -0.0957823611595550 -1.3475941296949294 102 76 53
-4.4252433619704217 -1.4072328318773473 -2.9240909260015848 174 170 159
1.8301107889099320 -0.2121529711369362 -1.4026808779309237 118 24 48
-1.4691597609501885 0.8514887572050819 -2.4768151294052938 64 74 75
0.8683435770386909 -2.1464996570657195 0.3379115114169671 37 18 11
1.9522995050591088 1.8907784489028510 1.2591482004648586 62 62 60
0.5864059305401266 7.7847541275795242 -1.3964827011816268 6 11 14
-0.5219363437977114 -1.3379516265394944 -1.9083928785977362 98 81 65
-0.8561583968546107 1.9020383696812078 -1.6400889416372935 101 76 54
3.1270839315739107 1.8908358396321994 0.4272656371774704 99 81 59
-0.5531353662943784 1.3395350346300197 -1.7831858337676734 7 3 4
-0.8825941885591291 0.7120510798412315 -1.8446737431965514 11 18 24
-0.9344708112510401 -3.7125616481394790 -3.1548599333566636 54 35 29
3.7935784552390222 1.5292856593405775 -1.5946919124303980 49 21 33
0.8227252573484308 -1.2778668021196160 0.2639627173333299 85 67 47
1.7473039389205536 1.9032151841028797 -1.4409120644811189 106 84 63
2.1290877736061469 1.9394371576442160 1.8814466294461500 116 113 104
1.4000185592169583 1.0039941432209822 -1.5912492334332542 0 4 14
2.0858972637309035 1.9715592424234187 2.3872504887069108 123 120 111
-1.2346661902675296 -1.9855405758437583 -2.3955290223913273 58 42 27
-0.8230573537527216 1.8885290043337537 6.0381124020088954 30 23 30
4.0834115421311319 0.2623120980122294 0.1974222367533156 47 34 18
3.7777081928732379 1.8989807685685207 -1.4634297767718416 77 76 82
1.9884063043047357 -0.2139036312665184 -1.3830871935028759 202 206 215
1.3243700831260077 -1.9684798928884892 0.2446705062908329 85 74 68
1.4723088317989397 2.5634472955508669 -2.0272923397127793 112 87 67
1.8179610031778781 -0.0859790299920677 -1.4173660587529637 202 169 162
-6.2689667897740939 -0.8974788442631566 5.7237225651189734 172 165 155
3.0778500886570868 -0.0320313997938190 3.1203359725331143 201 190 184
1.9750705551487548 -3.6284404549073450 -2.1504122348346870 38 19 12
1.6056504500399409 -1.5006898624349929 0.4625089406938245 58 35 29
2.5786506744577244 -1.0302640527082449 -1.2037096357329824 16 14 19
1.7559960189817507 0.7418606209556257 0.4512027572175157 115 111 102
-1.9133071148150751 -1.2700432798621881 -2.4541716274199454 81 78 61
4.0470357655316764 1.8038630783197289 -1.3506498800918378 19 10 5
3.1947451188865754 -1.3889970999242627 0.8047669245358048 74 55 38
-3.6012301892727079 -1.2705485806679870 -3.0487054891802017 200 195 192
0.7821388308948876 1.6496164049744435 0.2666298883904935 94 67 46
2.1358789094511557 1.9765960365695012 1.2845770450132112 51 51 53
2.0339730909119034 -1.1960598180626818 -1.4849275258745951 164 168 179
-0.5401048213176161 2.0382625202100324 -1.7583149155426472 109 87 66
0.8319677030258563 -1.9126855196399106 0.3288027071794903 62 39 25
-1.5965127208572525 1.8485298890740354 -1.8603390618642293 144 118 95
-0.3123857135341333 0.1930396316511095 -1.3581097617875284 179 188 195
-1.5881393912072035 2.0347840147717964 2.0800237379821107 206 205 203
4.9604820342842437 -2.0836395373950887 -2.6539367350192222 249 252 255
-0.5056116586399118 1.9279710635541070 -1.8324794943237885 34 23 27
-1.4727119021735322 -1.0339240305478192 -0.7170807381956602 56 47 42
4.1906468672381640 3.5082603662277236 1.8116777807550257 91 78 62
2.7243321407610557 0.3983473785378062 1.5143406111825399 217 212 208
4.1551060012691554 1.6543627233097395 -1.7265160198989244 45 18 25
2.2385097865191872 -0.9997084992675135 -1.0853501101865735 13 9 10
-0.8842005099693601 1.7295963022015579 -1.6224006826912778 141 119 98
3.9902347908180600 0.6679371293363028 -1.5535025893717778 48 27 24
1.9256529642559668 1.9519238576907487 1.2313130636093195 111 111 109
2.3561484216960684 -1.3584265338955368 -1.3001027047440981 140 139 145
0.9068564636701172 1.8103710630516645 0.1098714567105867 43 25 21
3.6215124198325652 0.8812370417575639 0.7868755146835458 47 31 18
-0.7624682722442504 -1.9034276432985771 3.0836782031971128 255 249 253
0.3580809500676103 -1.8985651721353061 -0.6850007494812688 255 255 255
2.3687593036763568 1.6671344171418656 -1.3463989002660992 85 67 45
3.3995632270853591 -1.9382791266278985 -1.1873681857057732 118 96 73
1.9652725923559509 1.8428278208666902 1.8508890033845518 129 125 116
1.9007560633217786 -2.6489204728191913 0.9828735073455869 67 49 37
-1.0206617278907362 2.3932004529409912 0.9885972037380535 181 177 166
-2.6757734671820659 1.4996670869101356 0.4229580111022873 97 102 105
0.8980755471030909 -1.8177441249588291 0.2287782659317125 66 48 38
1.5070749015180120 0.2743395893505327 0.4198616951818087 42 23 16
-0.1972520374550042 1.9857754096755591 -1.8076224912220142 119 95 67
2.2167032632785681 -1.7142877190527439 -1.3345872231694833 82 71 65
1.4721833097111832 -0.7383250360687619 0.4132892558385270 69 61 58
-2.1652110435078735 1.4319569432847763 -2.1236664186656045 145 120 98
0.8011921288873957 -1.5874997100604913 -2.5163384211767559 195 199 208
1.9646772182389738 -0.2119843384395621 -1.3850077054685461 187 191 203
-3.8003076014159705 0.9614659457474830 -2.2184770560810954 89 86 79
-1.9276986192085528 1.1483098672253800 2.7790251797291128 159 162 169
1.4846895092220531 1.6488636243266699 0.2912870701103739 63 46 28
-3.6326520666748574 1.7526978008888909 -1.8749536112539491 57 31 14
-6.7864406906997985 0.4506322291600580 7.4679933480915892 135 134 132
3.6639723820335077 0.0212818444408560 0.6874117016486703 28 19 14
-2.4153537903647417 1.7478585627619425 1.8406721801991268 41 43 42
-0.8030534754700178 0.9380250348406068 -2.1256843574384812 123 110 101
2.5620382576513823 -2.3569497728237661 -1.3227007389893970 42 31 25
0.9114103798822314 -1.6522398764679638 0.2625098069721573 56 34 21
-2.2802923623236686 -1.7487425661919513 0.8867678064437916 175 171 168
2.3195324577195571 -1.5315339969622619 -1.2732319745281546 113 85 71
2.1864753293747818 1.5019339349285024 -1.3901064234545644 178 168 156
-0.9621942396887511 0.9908087070662246 -1.5915080172914300 186 168 144
2.1511645548572118 -1.5880912870539112 0.9599708341355260 36 26 25
2.1564627541920047 -0.6827070854192375 -1.2667809087010078 82 70 58
2.2166377626592122 -0.0154332711005981 -1.3504450199325766 98 72 47
1.8137284815271757 -0.2268673250378773 -1.4604864392133350 108 42 46
2.3656181252314750 1.8997888894936199 2.5294802108801910 113 110 101
-5.7431620546517532 -0.5689067899128424 2.9039894676281159 74 75 69
3.4273428063184910 1.8341578277990265 -1.8609895049904881 77 61 72
0.6267126500118807 6.0619457314562792 -4.1518224889900885 98 73 51
-0.2747076989795494 1.9270666500954352 -1.7020505667199843 127 103 75
-0.7644635182093925 0.9032930493588993 -1.7810773945630494 127 114 95
1.8990036313054925 -0.1877350150799643 -1.4346793204011465 179 180 184
0.0433499782293772 -1.9427043951431084 0.4357904710312044 8 0 0
2.5252916462034549 -3.7113022453816820 1.7470326053657907 45 34 28
-1.7723806928574199 1.8872526910371645 -1.8591425708133447 115 89 62
15.7609723137965094 -2.6601116429529457 3.3157112759700107 76 60 35
3.4533797449128669 -1.6114784683082146 3.0658458149120267 214 164 105
-0.2560211518612978 1.4113239966204094 -2.1079617445165861 146 150 153
5.5516771766878996 -1.5953940407646172 1.6149240051267335 51 46 42
2.0113777711787049 0.0333196371446858 -1.4436070288549330 170 173 182
-1.3092308754746556 -1.8537485174386530 4.5721136533639122 128 119 112
-2.1939275216699472 1.5544762764222146 2.4827997852172525 79 83 86
4.6821044593129848 -1.6433187691222557 0.9696952492224745 50 43 35
-3.1896782189800543 0.6134827407862529 -2.6313651345677584 47 40 32
2.9324788144194929 0.8829084414129305 3.4212894930868067 87 79 76
-4.1106713528377306 -1.6190981487949021 -1.1628851056239908 64 48 35
-0.1088476345647707 1.7299935790560168 -2.0221880787979800 80 59 42
-0.2670918703814588 1.7245990739026178 -1.9095154825504401 80 70 71
-2.2947880942188972 -2.0448044744509808 0.9534805240831694 119 115 112
2.8097543780466268 1.9275764211013247 2.8503426443028288 83 80 71
3.9551918169748403 -0.5284584967770206 -1.2999292543660674 19 9 0
2.3192840083433786 -1.3707943678883250 -1.2790818238179678 97 72 67
2.1587819361541061 1.9684974733059240 1.1200034238779406 97 95 96
2.1426938656443895 -1.4096129509938380 0.3222040990897265 73 58 53
3.2042551752801289 -1.6219000549241702 0.7123532296261134 35 24 18
3.0803144169715000 -1.1104757158347693 0.8191117697920959 170 179 188
5.0680159588630245 -1.2372186154192806 0.2890497854113331 56 43 27
2.1740532480920516 3.9879272971599233 -0.4692805171673595 138 120 100
4.0708539541013646 -1.3311995472347931 -0.6061978512479261 105 86 69
5.3256689236608219 -1.5931299447432570 1.2628637573823069 31 22 15
1.6900220918943292 1.4753551158968030 0.4123552115867349 106 85 64
0.3162538502476823 2.0254540723416103 0.1676748330048464 179 163 150
2.4409760764668853 2.0657102950731958 1.0810971290041580 136 126 116
-0.5853049373873400 1.8330520348967558 -1.7838146255741771 82 78 79
1.8012239008720052 0.1848636513866376 0.1047510662925674 51 47 44
3.6100819171024203 -1.3505310578780818 -0.9395122598323163 19 13 17
2.6450868064455917 1.9035520195788864 2.7226979180465634 97 93 82
-2.6061230737450818 1.5968353389061538 0.4057932618554758 48 58 57
-0.7604195617274629 -0.8077448887934214 5.4734555027271004 185 185 187
-2.5501352299086646 2.0264375457422301 0.4307849346266279 186 187 181
1.5855102302006121 -1.6097608848201082 0.3048451328436192 49 36 30
2.6985073761366842 1.0452145129698391 1.4724474029382866 216 210 212
1.4611652944951614 1.0086748488648904 -1.5623791840176060 182 189 195
2.2069426085475223 -0.0178816142387375 -1.3278411697580970 98 72 47
2.8317401743962871 1.9116948935649871 0.5852644029785918 91 73 49
0.7603441020940214 -0.2815801452268079 0.4481146016252512 117 112 116
-0.4470854052572389 1.7108668664070577 -1.6428303799515367 119 97 73
1.2831129309190668 -1.1286394830031985 0.2877142227354249 118 96 85
2.3174027962383996 -0.1330801351599564 -1.2984158421653793 92 67 45
4.1732380402022979 2.7291182253593353 -1.7822684546889898 117 106 88
5.7837125787269450 -2.2969558841345208 0.4479203040059981 114 96 86
-3.2007086279852710 -1.0146656769446429 -1.2667515536415559 85 71 60
0.9653780569142631 1.5646186126778636 0.1771656927075892 53 35 15
2.0709920553070331 -1.8712666217168326 -0.1002588222596444 97 86 82
-0.9421124678980585 0.9420154789218222 -1.6526478564968987 43 34 25
3.3815652656935451 -1.2352512030113043 -0.0241835201864806 115 101 100
4.6956252620132704 -1.4047133764417661 1.0092293073608403 70 60 50
0.8505587591094905 0.4564467796794971 0.1579208847664406 79 47 34
2.4601490327713855 -1.5341781625986064 -1.3592674123243285 151 150 156
-3.7160030485236484 0.9389177133559491 -2.1694233156476690 74 74 72
-2.5951905608263433 2.1416587894490773 1.4275766144452420 130 129 127
-2.8580851917634180 1.3019552297828063 -2.0596427202990215 120 96 72
-2.0108177606393580 1.4768656217965916 3.3032306992106224 95 90 87
-1.3131892791937672 2.2081922799625673 -0.5270375771944609 163 158 154
-3.7232389880014787 1.7406412588459792 -2.0012839164922736 83 55 31
4.4952032358853762 1.2466521291332944 -0.4804245340405685 67 42 22
-0.4105245235527430 -0.8872036543812769 -1.8469299735081630 145 141 142
-0.4820121935590772 1.8565508210635024 -1.8822596122789097 27 26 24
0.8107936100362209 1.5948856408324181 0.3426791896996670 191 180 184
-0.4437543980933305 2.0266817840758233 4.4167398878080411 149 122 93
3.1951688473577038 -3.0216207097528809 -2.6509245704724513 148 140 138
3.3327102491013108 -0.4314531995740549 -1.3327121728791518 59 52 36
-0.2858916923589283 1.9765722699241983 -1.7448540679325690 128 104 80
-1.1285110179820284 0.7314891030322218 -1.9150297919130375 33 34 38
-2.8779072508274282 -0.0397068432071712 9.4848088226389624 96 103 113
1.1193721252761963 1.6374732461768442 0.2365357964677540 150 131 116
-4.1362159584317038 1.6452212662201828 9.6918976558800871 67 67 69
-2.2073404126311642 0.8756653321324949 -2.0638431660594687 33 32 30
-3.7192592793578108 3.0649884178535198 -0.3651427639956991 219 220 222
-3.2303197095332465 -1.8977997944626992 -3.3098249869170822 83 79 67
2.5911340721654135 0.0016789717611229 -1.1581816701235201 30 31 35
-1.5501401668636579 2.0255006254294448 -1.8940677543534139 122 97 67
-0.8188404734195893 1.8725625519448876 -2.1312680573620959 62 60 61
0.4080692746480956 1.0935274400072745 0.7325895019818154 212 202 213
8.6304511142165428 -1.4341570644756205 2.2155001363902422 42 28 15
