ply
format ascii 1.0
element vertex 693
property double x
property double y
property double z
property uchar red
property uchar green
property uchar blue
end_header
-3.4764933468769921 1.4872640292735710 2.5287165096811361 117 113 101
-4.0456429193377303 1.6479781532789057 1.7456402109181444 151 150 164
-4.0465875231894826 2.1962588512751031 4.5363504621493798 184 168 152
-5.9216754604333115 1.3100349119282333 8.3649331391999890 58 67 76
-4.7088983523431507 1.3297740101711617 4.8561271700273023 120 103 77
-0.1952740383053231 1.8346794338334387 7.5587106707942233 133 112 83
-3.4424589229260594 1.7983851881356006 1.8749029827017998 132 116 100
-3.5945612367102870 1.2709462748620921 10.2128576030622398 86 85 80
-4.3843173087652891 1.7855981463991080 6.7893689960140922 181 179 180
1.7487294817881698 1.5681649707299758 -0.4269179047290811 114 94 95
-4.8224624043036819 -3.3574130700003226 3.8587544619816398 137 127 115
0.0948758565692967 -1.9500685308657024 3.7046791071243650 124 117 109
-4.4960815029513777 0.0258505238551170 9.8686308537882876 80 94 107
-6.6585590010914819 1.9405994488466307 1.6569810146546846 102 89 72
-5.3294869837271834 -1.7896228376005592 3.5859698149269374 124 117 109
1.4749950321008898 0.6330073529462228 -7.2895728969633788 125 121 110
-5.1002200123400581 0.1129569490542742 1.1546501696817599 108 91 65
-4.9553897167897967 -0.9627474450504618 9.3124488274814539 59 62 69
-0.9137628493179319 1.8936285438424525 3.1568190863643215 112 91 64
-5.2864674351121197 1.3025619702899200 5.0364564627464334 49 51 64
-4.5765727096667943 -1.2549619072121510 9.2449593096403628 55 51 40
-6.7024901066305489 0.9538886850388903 8.3840832630707567 116 122 138
-7.3774828693149761 1.6014005813208023 1.9618876854748153 88 86 74
-5.1660531825979632 1.5783263783507424 1.1200130727628239 106 87 70
-5.6937994865184383 1.5592241727597218 4.5320231125542945 53 44 45
-0.2499775031366895 -13.1053680256709928 -1.5971861782900392 15 4 0
-14.5028034627675826 1.2642318833363178 4.5824698753009878 29 32 41
3.9420456736003771 0.4922723483954578 0.7891782509330906 33 35 47
0.3039210381063558 1.0859388342539713 3.9722601142514842 129 121 118
0.3994415367939984 -1.9232047342755143 7.0040555612306159 73 57 34
-8.7713991197103560 -0.4945726884849556 1.6744053501338247 102 93 86
-5.8426426391136692 1.9044962372405405 5.5175546386103891 95 101 115
-3.7168108687342305 -1.9437087923261998 8.1169813065756156 253 252 255
-4.7005937093080261 2.0134237248254583 7.8370464415459047 182 183 185
-4.8612629366506930 0.4911055606889727 3.1115054860165028 166 156 164
-7.0531480545354972 44.3839166865702595 4.9334355949850570 17 17 25
-2.6975815887805075 -2.0402679668684200 8.6555592418573699 87 71 55
-4.9444601970096071 0.9576490998141135 0.1677839905719025 95 75 51
-6.8233073836429599 -1.0818836938086820 5.5140879353431851 175 174 190
-6.5361332716452205 -1.2916522872651210 1.5051877931310249 89 72 52
-2.0010344439296404 -1.8136827234817205 5.4319205642474291 119 110 101
-5.1592227692568562 10.6886311978294124 3.2725715844858558 26 30 33
-6.8760067824599833 1.9125844228322211 4.7105352894602319 18 9 0
1.0989599410674213 1.5114420780147846 2.3974988306170473 119 117 118
-7.6057470634062136 0.4461881644935358 2.3879412819393124 40 53 70
-4.0611248090863299 8.6697550020595102 4.5522814528791615 46 41 48
-8.3945636236538874 0.5122254136070331 2.7535744285100026 12 14 13
-1.7830057593381974 1.4635443531986345 -0.9946070816296815 60 50 40
-4.8643909284173521 25.7903216253977483 -0.6566929324190561 65 57 54
-4.3049640761771348 -1.2026559214584673 1.8441985421778040 97 87 86
-4.7210316442621965 -2.6356098965373511 3.8998185241668506 129 120 113
-2.2819665266481985 1.9903595941916017 1.1150423619945293 148 124 100
3.4935503478952392 5.9154870314932628 10.8314416323299909 102 81 54
-1.9205575237920192 0.9724107693368063 10.0582223084721445 74 66 47
-2.5579690861240785 21.7573682775432538 5.7206323127043293 31 24 16
-6.2207612630630438 -0.5722597161749130 1.4260016298325460 135 120 101
-0.6323266071051720 -1.9156139713276055 0.5132649132991508 122 125 160
-7.3247297759262215 2.0467576343502576 3.5121049210125190 116 99 71
-7.2736829808625085 -0.1038795539208797 3.4846805999547983 125 117 106
-5.0715860503786265 1.4737466151817802 1.2292317323401576 64 48 23
-0.3697628947019248 0.2732097552614662 10.0647755853502314 44 40 31
-7.5290348199174186 1.8395960939701710 9.7090301400294514 79 79 67
-6.2297434614073302 -1.1579978441688243 1.6938276177619487 100 82 58
-3.7159426370666555 -0.1178291472281566 1.8375055497069921 134 136 157
-1.8728094373882991 1.6703014231170767 1.5768082546062647 99 81 57
-3.3094296950817310 1.1305708089025752 1.8309183202011710 4 7 26
-1.0283440719850672 -0.5100724624160268 6.5575087018743723 131 129 140
-10.8962154480154130 1.6397274084491889 2.6795138477470632 33 42 57
-10.5730759011135458 1.3421428056392262 1.4491022393704271 26 27 32
-6.5067506670138844 0.5894261280542666 4.9680717186503882 111 127 150
0.2095548149714809 0.9726157280351184 6.5635814680874427 125 120 126
-7.9052705252891089 -0.0806251369988128 1.8129866473709457 54 50 38
-6.5203628413652677 -1.0546151022499572 -0.3647067227748862 152 148 139
0.1767771126225761 14.4926402477367731 10.7092933043812710 81 65 39
-2.3286479113410534 0.1670687819878585 0.2481551734054039 142 140 141
-3.1043756105661271 1.9409415240370036 1.9297854705319257 113 93 69
-1.8878128729197068 -2.1536898057166054 9.0765737195735561 86 67 50
0.7093754741638798 0.2278070637709007 7.4236831726236989 102 111 120
-2.0571793884669485 0.4558947593147502 1.9661374788327493 131 130 135
-7.4701667220922960 -1.6044004693458347 9.8104239612223214 60 56 47
0.9457148079932519 1.9125053114803916 -0.5550446483362116 81 71 62
-0.0749332445003830 1.0125100677834473 8.2282199942180689 58 53 59
-4.3085420647852546 2.2771114745710896 1.7364734198400562 117 100 74
-2.5904177177428793 1.1446000135827101 1.7637562894214704 157 160 177
-6.1085040878249108 -1.0007470901859619 1.0331495422259729 44 31 15
-6.0908281376805089 -1.9666524175649840 0.3030818701419711 96 81 76
-6.3419005405487203 -1.2060256410293686 1.8515558809940416 73 58 37
-2.2306246500045184 0.7451969754659369 0.7742733724013312 113 105 92
-7.4607571762882134 2.0752379488513459 1.9326016844618890 108 112 123
-2.5815219349824279 -2.0861620381504831 2.2504223500503238 112 95 77
-8.1574245162743164 -0.6965347111476199 2.6435300298070810 25 23 26
-0.1947496204711649 1.8250136528113903 -0.8999370701437693 134 120 109
-5.9677369025632538 -1.5167625544330605 -0.4394801727159615 67 54 45
-4.8064216235311470 -1.9646961858585630 3.2439970184736842 126 111 104
-4.3258458663255421 1.7261803626186922 1.9112164920228190 134 122 108
-6.2145337183647902 -1.1398497102743470 1.5687330195124645 108 93 72
-0.0084008196214395 -1.1559571937830344 11.0546133442552517 125 116 119
-2.8937846786387698 -3.2357552832047962 2.9996862922700966 48 38 26
-0.8240699067130219 1.7165934783495322 5.6507630171791856 134 112 88
-7.3845292256766806 1.8300078374108566 4.0095160617506611 120 105 86
-7.2971917676396165 -0.9988682215062011 3.4781691115648758 115 99 83
-7.2065326356266652 -1.5278141277577488 3.8765035943425104 117 106 88
-6.6572825229500268 -0.9511105375166830 4.3361871631849196 132 126 112
-2.7303197429704489 1.1324451392216506 3.0911830562328935 116 111 92
-8.4492538858235804 -1.7218782608035854 2.2918370355335385 55 43 21
-5.2901030563163554 -2.0107399360004305 6.4107640710299982 136 124 110
-4.7069202898038407 8.9558603553074860 3.5112298456838800 10 11 13
-6.4905811559442705 1.1788129389582409 6.1053086755393116 84 94 106
-2.6057671421784860 0.3194865040018445 1.1535154417632481 86 64 51
-2.1226122861776746 7.3698826990402084 6.1537103806264497 39 47 60
-0.7698275516502849 -5.5734311549953626 5.2795688865126484 106 95 89
-6.9098278698296811 0.4688239179695945 5.4786849117318868 105 114 131
-0.5936822168765680 0.2300853497323080 8.7886814263251605 6 2 1
-4.6504243575193112 2.2206661429159746 0.4959569510589604 137 135 146
0.2899694037717726 -1.4250445382899655 8.7948853624315113 168 162 174
-5.0908569091880853 -0.7906619100195805 1.1963410291807697 96 85 65
-6.3025346162783551 2.0576592638352094 1.6959425258389946 118 102 86
-1.9512130250294828 -2.0141462455830048 8.9300435585182267 75 60 41
-5.3148385610456339 -1.8505001631386377 4.4893266072058235 121 111 109
-6.3879890702215913 0.2110802094430763 1.6277806785130915 127 120 112
-5.1389223979534808 -0.1381897777773162 1.2288616636827825 96 81 58
-5.9030301310440709 -1.1273747044484745 1.6262369487588832 84 62 38
1.0373268835850924 1.9246896530048507 -1.1295716749390892 81 74 66
-6.5981541679384712 -1.9826328142818259 4.7139041949148677 114 107 101
-6.3514942218632688 1.3905461210679155 4.4800410942543563 100 85 66
-6.2565066965977474 1.9903811457604730 2.3140125721812246 123 101 77
-3.8106827204237246 -1.8297441288334355 8.0807647301025813 119 113 113
0.3088809797016243 -2.2846742714284836 3.4808417615517393 130 126 117
-2.7536895560271217 -0.1082818538864877 10.4105920543947335 86 75 57
-3.8878003629801858 -0.0161668727922415 1.7005717986306776 145 146 164
-6.9656283671422479 -1.0483920354550280 2.0024752286487786 56 43 27
-5.9563330675813688 1.8898073612119191 0.0043505069871218 84 64 37
-2.4062530241610247 -1.9403559084114455 5.0422637142921340 95 87 85
-5.6221812505749167 -1.9508254969845866 1.7543471772019190 45 32 16
-7.2778758904135001 0.9423529909156882 2.0667844483137272 90 80 68
-7.4011880221303317 -1.0712050012143526 3.3290189286806977 26 13 5
0.2884982051960523 0.5246145058253165 8.5583532540673861 16 17 19
-6.5861201852328906 1.4247317276708293 6.6739121191667170 97 106 123
-3.9173752012889076 -0.2223662273425360 1.7491225920914770 130 132 145
0.4532498722096823 0.7000539665000739 6.7524076232611261 35 39 42
-4.8558965519570609 1.1734026595112705 10.9736606984695975 62 70 81
-0.1245104627861059 0.9145247067505657 10.7217772465698555 93 89 78
-5.0281902093446105 1.8591555618379625 4.8221266691518503 155 138 118
-7.0240585825504018 1.3356649471996309 9.3432178563589190 119 116 123
-7.5747042401724851 -1.2207358613234809 2.3246490858519731 56 45 39
-16.9845949563234058 -2.1352083986605597 6.0135756966615004 53 61 74
-5.3977459453874390 1.2867142242724265 5.4111504671901267 115 126 146
-6.3522447721080919 1.0910502241683533 5.8977596620128141 103 120 140
1.4130357716482500 -3.0307050650128562 5.6297232159932618 110 98 84
-2.0792216219686299 -0.5230174208222718 8.8333147593887151 80 62 52
-1.9234242405419297 2.1878790312620202 -1.2017925896681989 92 74 54
-5.1520125771813419 1.9124474380939289 4.8569481860257282 151 133 111
-15.2423258512704045 0.6936176969597622 3.9145467630218014 29 37 56
-7.0959021415977066 -1.1507120664583874 5.8218167348389596 191 197 209
-8.2366878470071292 2.3334856739943661 10.2373285113063552 110 95 76
-1.2918858860724358 -2.3011233955812003 3.6394482706600111 112 100 88
2.2830431678826697 2.3416227082250378 10.3068136298716091 150 129 102
-0.3793486399233142 -1.2449488294426558 -1.3409516377768016 83 74 69
-5.0811717743472240 0.0830631525791460 1.6243910851222370 111 96 75
0.0998709196281037 0.7803259463669217 7.2370297299725364 30 31 36
-2.8331834503126561 -1.8756701821690756 10.1215283515445815 93 77 62
-0.3749214054493556 1.7534636090560953 8.1088749821428010 142 119 88
-4.2081848566961275 11.5798521562358374 2.9109098170585370 22 21 19
-4.9967104096707518 -9.4619973043264114 -3.3618816155425129 89 67 44
-5.1250500510933339 -1.4862792358106061 -0.2536661659628366 68 52 39
-1.1263311313504833 -1.8983704515527762 3.8278992202941389 135 126 119
-4.4680816006909296 19.4908064405980106 6.1459864726610132 167 157 168
-2.7975943140989585 -1.2077904047140802 4.8841290949061822 85 72 55
-9.2577576541527389 -1.7213266859894463 1.4213516836416609 70 60 50
-5.1098323700106523 -1.7162060255431775 3.4445898004276616 99 78 57
-7.1739204582393761 0.9422234617391435 5.2792495159177086 170 178 189
-2.3151039925384547 1.7910051108613931 2.7094247654195116 131 109 85
-4.1974298784947459 0.2295243183854661 1.8483627603807831 156 159 174
-5.7860881545224743 0.2036243270256753 9.8417966400421850 84 88 97
-2.9333693665847913 -2.1966198220972957 3.2762094320897575 87 74 65
-5.2481249550124405 -1.7862530481168013 3.3457312253531484 141 133 130
-4.7312295959936774 0.7101160706394584 7.5124904737767935 97 105 118
-0.0195887101527028 0.7469289310046354 6.7356009540101187 29 27 28
-5.2579134927561428 -1.1725095665884342 1.7844002459743726 87 72 51
0.7381634860924954 1.5347326288005809 5.1525692887126304 118 109 94
-4.2243336395991928 1.6626434414286662 9.5127910455468836 110 104 78
-1.0041948509832834 1.6222040970361435 6.4377738958711888 141 119 95
-6.5594787790973115 -1.5042208014226313 -0.0795965514649026 131 121 111
-5.1779857801103484 -1.1237370233505666 0.2138580971174493 82 65 57
-2.6529089012465072 1.9762770916824779 1.9332494506455524 125 108 88
-2.8580629546404768 -2.0624073093840680 8.7323050183849595 101 85 69
-2.9572476077178504 -1.9377292719623265 9.8648440995154285 111 99 87
-6.7431355485689632 1.6669308862432157 9.7578274546447492 67 75 78
-4.3612611729781738 1.9351449337927897 1.7056518959229305 133 121 107
0.0632893805695686 14.1981421364815521 7.3062313522098723 52 44 42
-5.7837438474470444 1.4858024613194432 5.1051942878022389 45 49 60
-7.2228761785326236 1.8973657017849757 2.3701744607728688 59 49 50
-6.3686054086891906 0.7427257984725218 10.1227398322536946 76 89 108
-2.1348101030672986 -0.8304491830502474 0.9592798669469063 94 77 67
-0.7200623249963538 0.3479420446412659 9.1343786318659888 117 102 81
-3.3068693238671543 1.9646163809103623 5.1868510232133929 208 188 190
-7.6859796574474091 2.0445668772924259 3.0932017611739893 49 61 75
-0.7173643471143660 1.8539576367219586 5.7156050211016911 134 112 88
-6.8615262763956339 1.1519384515421600 4.9221393932314488 33 41 52
-4.5900814115334070 1.7963496967412711 8.4072814310367647 157 152 156
-1.8812192629878193 0.5037718450826394 9.9788568295914697 128 128 138
-4.1410610167951809 1.9162831681771797 5.1555046343024680 160 146 135
-5.2307914716952721 -1.2658595770030703 -0.0336242414209964 90 74 61
-1.8992369220245848 1.7689216975912825 10.8319120009018466 86 68 48
-4.9329746910724115 -1.5123454150899105 6.1789249277547365 117 115 116
-6.1337492092636179 -1.6374704618594675 5.9006974216219161 165 165 173
-3.8355522527190300 -0.1868837614784656 1.7129348100004513 123 125 140
-0.5495074905647361 1.8460707376342080 6.7868032169749846 139 117 93
0.3986114781400562 0.7519038054991704 7.6963605696091033 7 8 10
-1.6567555512115260 -2.0838849798619674 8.7745652432573564 70 58 36
-6.6935230894748905 -1.7629892382814785 0.2968647472946875 238 241 250
-3.8282976737948613 -0.2234512285390876 1.7006326253015247 148 151 168
-2.1567085744228072 -1.2703020967700036 1.1734133530005000 66 48 28
-2.4353893344923683 -2.7318411448521180 1.8748557572248592 90 80 70
-1.2786652747203999 -1.5186882917438937 7.0252672282734210 93 79 68
-4.1726456333033273 -1.9616290009427861 3.5915907139274115 121 109 95
-5.6210878797647599 -1.7731942910629239 2.0965418403995728 102 89 80
0.1846031151439156 0.1456561165359384 9.5946124944095210 120 124 135
-1.6513109123575851 -1.0190203228392958 1.9174494750651552 65 53 41
-4.3420190741621392 -1.8132900473297291 2.1296182856960928 132 123 114
3.4341032884745499 -1.6448955353347383 0.3444014582047724 16 11 15
0.5928339391242690 1.4678858657201763 6.3424064873071337 114 106 103
-4.0049054137911897 -0.2141998431042186 1.7480884850311287 148 147 161
-2.0310391864496320 1.0579060836067993 0.7802976467200552 135 118 102
-5.1273062713471909 0.5439205272705289 0.6414424412730101 88 73 54
-2.7589577579935227 -1.3330619262031769 10.0741498492019659 76 59 49
-6.3761608938068077 1.9105160962732863 0.2875607616212509 113 97 81
0.0438949160806094 -1.9942314429268804 3.8991479666059403 137 141 142
0.0133686148368195 0.5541063140905805 7.0594701083888429 90 100 102
-1.8253230835904055 -1.9756392135991010 3.5235887485108228 86 64 50
-5.7112007617287395 1.1516531419042559 4.5804307878775612 68 70 82
-10.7579150662364693 0.9495574232087647 1.7573150602489365 34 29 23
-3.9443569480999723 1.9020102372111583 1.8276872146959355 126 109 91
-6.8866790592015681 -1.9236018205941590 2.7189585754849319 105 91 78
-5.8435833668700363 1.3969328526749325 1.2516321819332441 92 72 45
-6.1067924466198962 0.5191118688655316 1.1861707668819468 62 45 29
-5.8804306956387906 1.7641535729696300 -0.3800438351873081 41 26 7
-2.6655042565914289 0.4527001493513292 10.6220775075249296 90 78 54
-4.5304493266367594 1.6373046299153184 10.4711568966509532 81 70 76
-11.4245582840284374 -3.4327212961408424 9.2754196266099793 120 115 96
-3.2472123476829746 2.8022997710834465 5.6348375844013887 187 169 147
-3.6942847884556413 1.0278510371181433 0.2418565932966247 77 80 85
-0.7215378684009112 1.4414378625826172 3.8621845026233190 103 85 63
-7.6506558575989816 1.9690341499775750 2.7293880730303015 67 76 93
-6.7842099360722115 2.0802458442579796 4.7271439479308128 77 62 41
-1.8417826945468463 -1.3142644658898810 -1.1797469568052652 101 84 76
-0.2200452775194951 -2.5731248187481479 6.5203073802592453 102 93 86
-1.3576979206825113 -1.7100964770849834 3.7478808486640971 134 125 120
-3.2260615394016821 1.8268643865232352 9.1800880129268272 167 157 155
-2.2315400891290689 -0.9783312259990056 10.5651676629910138 84 18 19
-14.8159478423598188 0.2861355536535533 5.2690374215378339 52 64 90
-4.0427915146785223 1.9723654970093176 4.4154401736679976 185 169 153
1.2661777315801919 -1.7605907748631959 -8.4923683387136286 92 83 68
-1.4103801346713105 -2.2433897459519287 7.2549552393840191 173 170 187
-1.1258265505820280 -1.8935119419392314 3.8004096839479673 135 126 119
-5.3658948839928708 -1.0261637050045533 0.8922454654543396 117 101 85
-5.9366708462091848 42.9418646601614640 9.5144647965065552 132 125 119
1.1607162496329397 0.8145003967687330 -0.7290025610562949 109 95 82
-6.1041488143946019 -1.3927234878576882 1.4336557985521470 83 63 38
-5.7385917186513762 -1.3823304540474226 6.4455160641260001 121 120 118
-5.1834704423170095 -1.9053561285182867 -1.4029063187306108 110 93 75
-3.3751096398089677 -1.4719563371879583 8.0914448933710332 86 69 59
-13.3489579176295035 1.6200562943071306 5.6985455562282130 49 53 65
-5.3613130189021350 2.1891797150178398 5.3010016057314653 127 107 80
-4.9837426845360593 -1.9513898690335192 7.6669477751816206 181 180 185
-5.7377259698791852 1.4985731871671450 10.0618253262553718 122 113 118
-4.0599459489099088 0.1760091887280543 2.0492810614011678 156 160 172
-6.1120261331831465 1.7396022304139320 -0.2296872561875334 93 74 57
-6.8838609965787727 -2.0188680055655039 7.9549783620599337 85 85 85
-2.0428718593460147 -1.8804939801455842 3.5815412000878664 125 115 114
-2.1585004275861315 0.6558746165585942 9.7104446091817120 142 131 125
-6.7214708281181830 2.0468210648056533 1.5688658669158697 91 73 49
0.9818330496300786 0.5087075192646915 9.6631113507962283 20 22 21
-5.6269228388154620 -1.4527937278398582 -1.1003844790863737 215 200 179
-2.4649719116908342 0.5286377342554508 8.7819069065752462 157 157 169
-6.1897024184480376 -1.1873360100884620 1.4929612707554480 110 90 66
0.1742047878334304 0.5776062013209119 7.2273070659548653 78 88 89
0.1249519433991371 1.4721840209218986 6.6471015249660406 76 68 66
-5.1823583453864446 -0.0749498154803186 1.0674814467830747 127 105 82
-5.0230846472566846 1.8858308910983439 1.7366697808853113 107 86 69
-15.0018558408337963 -0.0493704110429488 5.6961081312927515 68 77 106
-4.1401003227650435 1.4169817233174946 2.3442651869797060 118 102 86
-5.7567365687911538 -0.5475484822096237 6.0208152581067687 74 85 105
-0.4910755157259955 1.3873254947985330 10.3703673188644299 69 47 23
-6.8305236605575317 1.4698494173911831 10.2034322801984771 108 120 132
-4.7645362824989732 1.5157396968524206 1.7818205283844750 179 172 179
-5.0467429377674442 -1.1529778344806880 1.6824250922161863 120 105 84
-1.4661694487524743 -1.9236771271477648 3.9459778502702094 133 116 98
-1.4793528294744680 -1.5415015161758978 10.6670431039429587 94 85 78
-7.3287942234994903 -0.8768617368613947 3.5148910760955161 156 146 137
-6.7336768222047692 1.2919970786371278 6.7487685025752899 62 71 86
-6.1040404069358507 1.8987446959712904 1.5167634085505934 111 95 70
-5.2507421084007344 1.5456087880753435 7.0992894008828600 172 173 178
-3.9782944560145066 1.8078800944372091 5.2432518671291337 189 185 186
-6.3188388506479303 -0.2618752759462438 1.6865035119218472 130 123 113
-1.8699767066252768 7.0927477070568088 8.0467461366881636 144 125 108
-5.1170321948124045 -0.9651527465775649 1.2560066608348261 203 198 204
4.3640440932375837 -0.4114447172924678 -0.4247262206378800 39 40 44
-3.8447604240107216 2.0386481365330389 1.5816195439461005 135 133 134
-7.7562928327380654 -2.3406033245994999 3.9445333506884594 85 73 57
-4.3270936723920697 1.6653485368843099 2.0767752367611778 119 101 81
-3.9306566514529493 -0.0870191526242599 1.7314567983984102 147 150 165
-9.2362789586974365 1.9548411376626316 3.3202373561036902 62 70 89
-5.4370543308998753 -1.2178651531695652 0.0165890332696195 104 85 70
-1.9714276477904611 -5.8386751521467106 8.4589722681357351 87 67 56
-1.4510777222800408 -3.2590708198056486 7.3225448113037990 116 99 92
-12.8161327852834575 1.1002758709038110 1.4810321968552596 26 21 17
-2.3066915829079453 -0.6796404320940391 9.1102005713992025 123 114 105
-5.2442286425972346 -1.7639811422681262 3.3895316154363386 119 109 100
-3.9666325077337605 1.9662586210592232 5.4740962392558110 212 212 214
-3.0427398745371983 1.5905837856904095 5.7280719905919790 203 197 197
-6.9968070172095684 0.5953410506370480 4.0236340886555384 109 96 79
-7.2501511118627846 1.9645829704883551 2.4313602053276488 46 47 51
-3.5454690758333327 1.7947489691454523 8.0004016139567060 190 186 187
-7.6911205901067357 -0.5022684418903928 9.8863099939869929 105 109 112
-8.8722194036513535 1.8590282550810879 2.6115077191537992 66 82 95
0.6129739451575887 1.4248138710766440 6.0825423463189878 175 168 175
-7.6205074414899165 1.9886156471922081 3.1639259565460085 48 60 74
-5.3184880807197930 -1.3376917692517103 0.9901474242572696 150 142 140
-7.4436690021231540 -0.9586897139412688 3.7767896816923825 136 123 106
-5.1600004334115477 -0.6847032732363563 3.6273136036767895 96 78 64
-6.9476649142462685 1.4424292933344083 4.4807030765558977 108 102 86
-1.2810131440817902 -2.2540327781427241 3.8163095495254162 107 96 90
-4.9266326237966691 6.7902685553420392 3.0131350428362924 147 127 103
-5.5875710691816440 1.2483315959090535 5.0204962681201977 97 103 117
-8.9261337266201650 1.4011689576151298 1.9527052357000236 49 54 58
-4.5512814001507866 6.4566444779927705 1.5677576868417860 139 121 111
-3.1683217986522676 -2.0775013981379775 6.7091913750837833 255 253 255
-0.2509945170413315 0.1937167318478652 9.6392215836690625 16 19 34
-4.6689819964019001 1.1830685747257397 7.9139405875342757 94 99 102
-9.2070133375229091 -3.3454821159611168 3.0606910979879749 105 90 71
-7.2726704145141738 1.8289708595805969 4.0443284544335123 53 38 19
-8.9784600930835108 -0.5636508578139637 1.6194467529646759 69 64 44
-0.5775956167558589 -1.8796112664624389 6.5418666416901807 203 201 204
-7.0818209655116808 -1.2698483028131815 7.3611509114973943 124 124 122
-2.1702179983828316 -11.9573375469908250 6.3429463556308434 121 108 91
-4.7427493843195609 1.1580105834549315 5.4651790320743219 120 128 147
-0.8649662210148309 0.8622120650301422 7.1335239843893596 102 81 54
-8.6975188818417930 -0.5340263831929124 3.3335639408315729 13 18 24
-7.6444644002391504 -2.7837739873941216 6.3704138354323643 122 120 125
-6.2864369022728557 -0.2883866731591521 2.3397811272576345 90 74 51
-5.0164254856910144 1.6199300448678151 10.2814977006765957 65 53 41
-2.0954197688270453 -2.2531010858348663 8.9236848625279244 87 69 49
-6.2503038195022906 -1.2576692390037671 1.7158738095212913 92 77 56
-4.9041723505368768 -1.8178024493335361 3.5315803632875760 116 103 87
-5.3329582016109862 1.2790159035521711 5.1079426110533355 110 117 133
0.6857972399132067 -1.6861528736062865 5.2547005463661627 96 80 64
-2.4981063509604828 0.2894264763140639 2.0094490364243645 151 153 166
-4.3235892703619037 -1.2754186519246322 1.8459449140247259 102 89 72
-6.8352471327516966 0.5550534730208175 5.3665223363352004 100 115 138
0.2678145226573388 -2.4253358231275595 3.9456402158970914 79 75 74
-2.5153037218284444 -0.9432156366795003 10.3956448486960547 86 39 49
-3.5268853851798512 -1.1118593368164731 0.8409332730142087 203 184 169
-8.9952177843906806 1.9339830290112705 2.7234428200010772 66 77 95
-3.8842018520501767 2.5058997584415592 2.3253710677255275 118 100 78
-0.2816076598704519 0.1792527809606553 9.6082063650266569 16 19 34
-8.5395876300898355 -1.7094483983709632 6.8706917698809544 121 111 99
0.5027771957144990 1.1018682267626472 6.5481935791535664 137 141 150
-0.4026525904470687 1.6173745362293301 9.0609655796321977 94 70 44
0.2018084078263737 -3.2478088398014395 9.0496717309197905 57 52 46
-2.0485065562643654 1.8054501955074445 5.1368655706617385 165 141 115
-5.1092953153130347 1.5077354933932372 1.2368963552102095 103 83 58
1.1163641030503180 1.5341365318301299 0.6271365753078008 55 50 47
-2.3766505355026162 1.7784032829612553 9.8956387666930343 127 111 96
-12.1888027057686461 -0.2976589116374712 1.5430310577355177 55 55 65
-0.1337793735992638 -4.0356130838601363 11.9308935406010210 100 90 81
-5.0065354542214147 1.7664005906489118 4.7116488447902203 175 158 150
-0.4369648407813695 0.2212260822921890 9.5509356983153886 189 189 199
-3.2512398889391783 1.5432940864127176 9.3665399696044993 169 156 148
-1.2761409678939872 1.7670758644053026 -0.9765179448246346 95 78 62
-6.2815704790786659 1.9812916721607454 2.2689519950237900 121 100 71
-3.1343852626997597 1.7742863464600160 1.9824399379792812 112 94 74
-2.0951008232842421 9.1749437104376010 7.8516439968203997 147 132 125
0.0626969001332231 0.5384880705743970 7.1944360300111825 18 23 26
-3.9107058912721908 1.7779467802382258 7.5190684070702130 176 175 180
-7.3826274681760440 -1.0660674782992525 4.1903524057468342 73 52 25
-6.2023090969663954 1.2181362003112906 7.2427182221194748 93 102 117
1.5557619474310129 1.7724859704380809 -0.4377900149206018 79 70 55
-3.0281316837415653 -1.8765478666696922 7.0216454013490717 139 137 151
-2.4461927515219246 -1.3916916905666690 10.8622470817136652 136 119 111
3.6910951899546451 37.5160530217862629 14.3051762963515028 164 145 130
-3.9740231736205089 -1.2625242625276591 6.5753177536730849 121 114 108
-7.4601138929292796 -1.0764372170062826 3.5928262055548723 89 72 52
-5.1687685546416615 0.4615757074701326 1.6738931077982311 88 81 65
-2.6807869570618297 -1.7181500260299500 2.1587722364298529 109 96 88
-5.0802291722380453 -1.9012197693809592 3.7616080419134716 83 66 48
-6.8961092853414918 -1.2243357296029034 1.8479421175549917 116 103 84
-2.2780724988726124 1.4479711865940776 10.4128081697822861 117 104 88
-1.1197155285882914 -2.1983439628145218 4.0018954330885208 112 100 88
4.5783501339312442 -1.3355707532881123 -0.6189296368633959 57 55 56
-15.1231133758428697 0.2681353070101831 4.4247955724955350 14 23 32
-0.4976227119062170 -1.7497223323030371 0.5613635564153108 59 49 40
-0.5184099492599137 0.2512870368080834 9.1502797750839040 56 56 58
-4.0310151877006701 -1.9552634601227183 1.9149801734667402 48 35 29
-3.5367140943664355 1.8078591721337984 5.3339216581712101 210 197 204
-5.8174036018591648 -2.0936928811286504 4.2792588832926199 78 65 59
-2.7665400730276892 -8.1062120033397740 5.8280837330754656 108 96 82
-5.0894920671370167 -0.8994806791476284 1.6734151851946608 126 113 97
0.5436953812128613 1.4985235442987941 6.5307055439188320 81 79 92
-4.0936098313690348 1.6781261073284883 1.6629269314028303 110 103 95
-3.6344391322047565 -2.4000235063889863 3.6194408295832337 144 134 133
-1.5448748684179037 -2.2948809473867535 7.9826217904271664 79 64 57
-6.3532720265249694 -1.6618970031474427 -0.7410090476868233 62 48 39
-5.7349009475409360 1.5381570610799529 4.6485195829090173 44 42 43
-5.4158643887991422 -1.7379069325586289 5.3066329540265968 136 128 125
-5.8437687823854718 1.9244439899091348 0.1459280861748268 118 95 64
-5.6158066903119890 -1.6459508386101391 10.1188531472956136 48 41 35
-6.4761944351537606 0.9537471325433754 5.2684441381368385 121 133 159
-6.9599113741079277 1.4589868222196580 4.5691007479365524 92 90 91
-5.5671288114556257 -1.8285836953537100 1.7467859343016825 125 112 96
-5.6719121424203811 1.3136855398965366 5.0277034307749009 43 50 66
-6.3121338817113664 -1.2159402324952266 1.7499213494039334 91 76 55
-4.9843876342069562 1.7772054713057792 7.1580284214290328 167 171 170
-1.4675248406374677 -1.1072568725849370 6.4740481659491111 86 70 55
-6.9168454847616232 -0.7022652341139310 5.9711007985539002 183 191 204
0.8260322484752829 1.1366993905297269 9.7107042857373536 7 7 9
2.3730267601821544 5.2249620739024332 6.0253387268955079 140 116 88
-0.2812519112271771 -13.2883999151776848 13.8526854768411205 134 132 137
-3.2231085338141532 -0.1569803329608757 3.3744562348976466 202 202 228
-3.7654999900224082 1.5170817879455967 0.1272495665508415 54 58 61
-6.9630089813156379 -1.5490014229851752 3.2359006372398462 129 116 99
-4.8074636667705946 1.4832888347603923 1.9900348885125094 117 101 86
-7.0000423125410016 -2.0636972528314432 1.9625311558763714 78 62 37
-6.4020358926986471 1.6597400041745649 9.3395072955293017 89 90 84
-6.0082733599467142 0.2451423003510152 2.3022182451515585 53 52 66
0.0561813184212461 -1.0847702474092191 3.6011556674011076 106 90 75
-3.9215760036841485 -0.2291615483018924 9.2317894790820354 66 70 71
-2.2193673364572648 -2.0140914587443799 2.2615618781949389 115 105 93
-4.3401424337488681 2.0355429481631808 1.8033328458196487 131 114 88
-5.1065590110503329 1.8628549656954316 1.7297999771816723 147 122 102
-2.9203395093981541 1.4966375338293763 1.8516336450157769 159 158 174
-1.0977125427027907 -1.9054340768859386 3.6748904292134270 63 52 46
-11.0927312622313963 1.2583067092058839 1.3914856248677083 9 8 14
1.1411362679673687 -1.3290574334078717 -0.5797209678974905 94 76 56
-6.8318917853002823 -0.3432822768038039 9.5019167703607117 49 52 59
-1.6501532692208065 -3.8173721378162830 8.4371092897647451 80 65 42
-5.8002530079033594 1.9607431341370405 1.2522935875309900 122 101 72
-6.3647177314634424 1.8604461014307250 1.6735004027099905 111 94 74
-5.5142066933581670 -1.8634819698317786 8.2494026855016251 104 96 83
-6.8050367221746155 0.9465962208663355 8.1734670452263742 33 45 57
-6.1152482186508257 0.0720787189947482 1.6271150738668538 101 86 63
-10.6830341531467248 -1.0364493423842376 1.4874726595696317 30 30 32
-2.5981226684948417 -2.6625916869934696 9.1345277929388651 117 108 101
-6.4660534849667277 1.0657306002861608 5.6917114956263504 78 87 104
-1.6933288983826320 -1.3412787422399728 -1.1221320064846172 99 81 67
-6.2487174449542930 1.4556897158143232 5.7854522930091807 99 111 133
-6.5639515393140044 -0.8312173279308400 0.2519985181627785 85 81 72
-5.1297352004857268 -1.2220689888305496 1.1312019259422399 172 163 164
-2.6322278338471334 -3.3063913614288092 10.2673483678547282 76 66 56
-2.7931122724638779 -1.9507680861870911 2.9568604901964064 78 69 54
-11.7267443261236775 1.7754004109490873 2.7702147911544013 9 13 22
-7.8258008228175733 -1.2883174027436282 2.0460727604520605 39 35 32
-4.9509888097222374 1.5072269752511263 4.9566128056463947 52 51 49
-14.1800896066791537 0.8702216619576894 5.2050257799951005 107 121 158
0.2768689304096308 1.3939006879391711 5.1240160152103247 132 124 121
-5.8724806297024372 -1.5466505191252742 10.2074804640955286 42 42 42
-6.1129176856295544 1.3245149020734810 4.6131522787146091 64 65 57
-7.4998635634041468 -1.0913087212302768 1.8396127039394516 81 70 48
-5.0874057999663203 -1.1058586694618813 0.2264708812741542 220 207 201
-2.2320566704821982 -0.3822428738939899 1.9843644399888281 123 121 124
-6.3762327279819360 -1.0663036335959786 3.0619303010807042 130 119 113
-10.2818924025402350 1.7894981729685360 3.8461945112293363 69 83 109
-0.3849873498916376 1.4193645833632467 6.6020320891188717 142 118 94
-0.1163723383809632 0.6466660296851984 8.3476447526238129 46 42 33
-3.2667819289429483 -2.1636091823351298 3.1792905123564550 115 104 98
-12.6445443054099123 1.0662408335621312 1.7217259758019399 14 14 6
-6.6508546811265381 1.1938652829868401 7.4256412924067901 9 20 42
-5.5815387786231145 -1.2315291279921217 -0.9638911144168413 133 116 98
-1.6662860502222505 1.5999221951578197 10.5734471524723777 88 71 51
-3.1504897119866904 -0.8578250684306832 2.2425326988325329 121 111 99
-0.2579749588924556 -2.1584068969463570 9.2329988502813354 121 114 108
-1.4204695876836499 -1.9115038153317232 5.9156870340571537 134 112 114
-6.5150447091202075 1.1251394031354258 8.0626095872853849 15 25 35
-1.2935299409876293 -1.6310537222471158 6.0022511883906509 129 114 107
-3.2963679675195037 1.5370063759433406 8.3666242506419088 170 168 169
-4.0866986277289064 2.7074311936675044 3.0931604657037912 136 117 102
-0.0317947114512880 1.8709768447717878 -1.0648995310415681 81 71 61
-1.3121597096848145 -2.1091032291001874 9.5497382255273440 112 108 97
-2.0775715626460487 1.9012178632569774 7.8025511660817406 33 36 55
-5.3157780915615049 -1.2987663185300742 1.0534347781045621 143 138 144
-2.8280111362348115 2.5027583374452358 7.3113151184743437 177 160 142
-5.3978746742536181 1.4271043812481410 7.4586732832070881 51 61 63
-1.9055278556253863 -1.6952631723780620 10.6869066627841995 88 74 63
-6.4554815641612038 1.6074611295050349 1.5969376059146396 144 146 159
-5.9903439388080386 -1.7602739535507448 3.5013544610222120 252 254 251
12.9200211546913764 -13.9309130219048996 13.1426675116125260 78 65 48
-6.9903120361537816 -1.2075107012704094 3.5091390123522999 99 87 71
-7.2887600440381410 1.9873946470127439 2.7748875471715397 65 63 66
-0.2355447220289089 -1.3485064789182646 4.5678273282634168 108 93 70
-1.6809352317949835 -1.7460055492668831 8.5801837780414143 94 77 57
-1.8274506162060649 -1.5405370039953825 -0.8646121520466435 76 57 40
-5.5691964372661467 1.5063777526074418 5.2478578164474827 104 112 131
-1.8189234050116860 1.7626491392443240 6.8551295473889251 170 148 124
-3.3807463865753102 -2.0264040645209707 2.9745287317368767 46 38 27
-2.3421176006351363 -1.3052401577665920 1.0312586449401777 103 85 65
-3.5417875880380012 -0.0633218652728111 1.7987223330101361 154 157 176
-5.2967677434369165 -1.8306106842370540 4.2792762193703142 103 89 76
-6.8834048985374752 0.6854369939178964 1.9784352374800467 103 93 84
-2.8305670841734272 -2.0031898636830565 8.7446745980352567 93 80 71
-4.1277787549154823 -4.1029871774813111 1.3306033817605578 48 40 29
-4.5741395396271711 1.8571680530604788 5.7442975957995825 170 168 169
-5.5567113764100649 -1.2747913972250926 -1.1117487882110597 122 108 95
-3.7398392562111740 2.0293840345633392 1.2449576463076362 143 134 135
-6.4216945204788471 -2.0004865722149932 4.8198856842320019 142 137 133
-5.1292212446703092 1.3928068201303720 7.1635800922728698 77 86 91
-4.9500177465239137 -1.5671733448088594 1.7237543481063455 86 70 47
-7.2785347802125484 1.6719662217891478 1.9491508513219258 126 115 109
-5.1631942416666474 1.3469423162792284 8.6815241022563043 140 133 125
-5.3510028628948723 1.8657496336238741 8.6169894344397786 152 152 152
-7.4087754658420373 0.4710986896931169 4.1146046759753148 129 108 81
0.6122378042766240 -0.4617207264275428 -0.3234806266364250 63 53 43
-2.2088065712898342 -1.3138824396737783 1.8831920529263941 93 85 83
-1.9083256054175257 1.6289686357326312 10.8192426782904469 112 96 83
-2.1918231130625978 0.6375658772841561 9.6935590132786285 124 119 123
-5.7053945349200799 2.1417234440498198 1.5139997575332400 114 96 72
-4.2369791648919355 -1.8705775657419355 9.4369344693951156 112 107 104
-7.1760128672581764 1.5201891141789110 1.8657539543819821 101 91 82
-7.3222360089638245 0.8938581028338444 9.6729731373813408 116 115 129
-4.2557585108681861 1.7660144610125279 9.7109481976735346 117 104 88
-14.6551218372809213 1.9695586502537366 4.6108442241241079 47 55 58
0.5090233018403809 1.4840581894766960 2.6122412845121614 102 84 62
-5.1114328363605921 -0.8797774347832130 1.3360338787679389 216 210 222
-6.2840675544219353 -1.7128199167581997 1.6908038593980192 77 62 41
-1.7849847010193818 -2.7997939172809860 8.3807799404628440 132 121 125
-10.8532366524899668 1.9721392926901697 0.5367601057726488 136 138 135
-5.0826092558960250 2.1078373881166867 6.2540911080171426 173 173 173
-6.1661168762611496 -0.6168221716538536 2.4256034075080124 101 88 71
-6.0271554315111997 1.0981927988195095 1.3466332482332934 88 73 54
-5.4258128464181983 -1.9315409196936499 1.7897103220825401 51 36 13
-0.2306818285990702 1.6621276590885308 8.6113437544017319 131 107 79
-5.1573980348255697 0.9342432453998470 1.5742294270311994 31 22 5
-5.5516778905570234 1.8136684579218845 5.0167037551958682 102 95 87
-3.1767950961117966 -1.5010667427878601 5.9833573411112475 132 132 144
-1.6353070521909407 -1.0787213741648605 -4.3129953189177348 255 245 255
-7.4734469580929686 -1.0176078530577108 3.3192871483979531 77 68 61
-5.2087506565951998 -0.9375632247190192 0.7944637227302520 172 156 133
-1.7338413536215049 -1.2407840509656438 1.7953187258939651 92 80 64
-2.5133175871471316 1.6418191377566482 7.2311758000272137 186 174 162
-6.1847447415744625 -0.0238368052332983 1.5503546002720463 110 100 90
-1.2781669101742212 -1.9378834168855668 6.5861837253965714 124 111 95
-3.5875696977068685 -1.9094490193634654 7.2244521176097596 254 254 252
-6.7175003459701221 -1.9192754287942373 1.4869974127697325 94 81 64
-0.6024835887875177 1.3833768396390451 10.2061267947250798 105 87 67
-6.7640015941862526 -1.7761019934056712 2.8815367833435692 109 97 85
-1.1841215470915698 -2.4771104738326759 7.7315917970788171 143 138 134
-1.8466638146354302 0.9602755817669711 3.3012322228388959 110 98 84
2.4847488784927054 -2.4828129319496131 1.4332616305092303 108 100 98
-0.1236733409093661 0.4387263348953209 10.0508176720168745 58 60 59
-0.4021561533563875 1.0282798261234187 10.8268706306740476 105 106 108
0.7089178173341932 -0.3631399977123814 1.5544060688992472 71 62 57
-4.7584200706765385 0.3216499239487259 2.4989021921613657 174 177 192
-0.4333960493683204 2.0139870498422141 -1.2716901525565407 113 97 84
-14.0391573838100392 0.8282212036524418 6.4860327905965836 87 99 115
-5.5921543391387152 -1.0933058111622449 -0.0061698313836489 255 249 255
-7.5583746596630990 -1.0723715856517693 1.8987843162784621 27 23 20
-2.1335193293964680 -0.9363436707368381 1.9389992414341990 107 100 81
0.1522960865736274 0.7048263739041611 8.5829489643439381 22 23 27
-5.8775846595033254 -2.5710641743010054 4.2519405032825786 118 109 100
-2.0670780749614028 -0.9372691413551439 8.5840388652871304 92 76 63
-7.3090345820119182 -1.1002558786817467 1.8471669510736626 49 37 25
-2.4623989907424684 0.2920249232642911 10.0088043070997941 199 190 183
-13.4437136399476671 2.2433692400001726 3.5320316493505244 39 47 66
-7.1889227729411784 -1.8180877997563618 9.7482629308252200 45 40 34
-0.1954729316348044 -6.5853436738416429 0.3355563452664843 121 105 90
-5.7893582773935437 1.2477082020923020 5.7492760873642252 120 128 147
-1.8834941260643121 1.4980472977613111 10.4936085815741666 106 91 70
-5.4082846716056450 -2.0723826325564896 7.1702407241814843 121 116 113
-4.1476377036877636 -1.0737607461788532 2.3322018344389095 61 53 40
-5.3498424131768934 1.8940780372872561 5.0155201172533070 84 66 44
-15.2077645260492940 2.0947249301632018 3.7823145840233323 73 79 93
-5.2266929171489993 0.6482798605818465 10.3453453660049455 88 98 110
-7.0401096277243642 -1.6195956280526584 9.9679703717022310 33 28 22
-8.0017327360747945 2.1203358146806601 7.2183006690106239 96 108 124
1.4878687472215422 0.0554793987006249 -3.4517201068618784 26 18 7
-3.0544193540678197 -2.4585407788386124 2.8464233962480709 121 113 110
-3.8560627675717165 0.9378556857374866 9.7313462676925582 84 88 100
0.5196122968264879 -0.0015351749474554 7.3000742581329989 116 125 132
-4.7454374327693980 1.2958005699684259 5.2503456304858176 103 108 128
-3.1860802579188521 1.6938130428482587 7.0412456687217766 194 190 191
-0.4691957042068933 6.6669389722700503 8.0658191147431086 157 136 109
-9.3827089828542594 -4.1358922152412436 4.1983298021485531 126 116 115
-5.8765154375377984 1.8980028338850259 0.2583743915824632 133 113 86
-6.7707604490608535 1.8239772444343783 4.3184197290651509 101 81 56
0.6331264627008020 0.5651856180646715 6.9870626413331776 80 92 116
12.5476787730266093 -17.8060828227121597 -4.8833901540320772 69 56 39
-1.1973126042651288 -1.9601246312844833 3.6029809818983956 80 66 55
-2.6499973548594697 1.8176699258791980 7.0633579282155790 168 152 136
-7.4718759323770909 -1.5856696803658035 6.2929169527885858 143 134 117
-3.9925135408661427 -1.7708492226595514 10.2358641332507503 31 26 30
-6.5225767205417666 -1.1709603735908589 -0.2109390868407025 133 133 133
-6.3416623469028890 0.8979540357662144 10.6982224063321798 71 84 93
-3.2674951403874148 -1.7889704269123590 10.1293774963690772 117 101 85
-3.1953638712279875 -1.0701924514494359 3.2968250605602862 127 114 95
-8.8659966830653349 1.9659499277079417 1.9890357699458152 66 77 95
-5.7443882110944910 1.3321519581223704 4.9891289402734493 43 48 54
-6.1839924120930272 -1.1718795213257724 1.2539381022884637 121 108 100
-3.2717514042846725 -1.9212746552824671 8.4589356811390584 129 123 133
-7.5765181629701255 2.0017461621796815 2.7330860723983235 55 64 79
-7.1077138651510783 0.5473539692560124 9.1433781105309357 142 142 154
-1.0309040033048005 -2.1020267324312556 4.2815535647117215 124 110 101
-7.5168835109461138 -1.2850424322568053 3.3392111490210095 76 65 61
-6.0593629598112644 1.2480896132701478 7.7718695295586766 123 130 148
-3.0195290914768798 -1.4231666643766581 1.7414236312611213 104 93 87
-2.7766237831863840 1.6371826365191147 10.0564675755455948 125 103 80
-5.5142822049305433 0.0796076594819244 1.3766178094960126 120 107 90
0.8283374623842497 1.6717341429386006 6.2114307600385823 121 119 130
-2.0810244315485167 1.7930510067983811 9.9912887163691533 82 77 73
-0.4298503086298677 -0.0245461877605685 2.5973400762519803 65 55 46
1.8973239772830273 4.4082738286629208 6.8562443979171865 136 115 86
5.2631684026746974 2.1251635240726245 1.4138516287023430 23 11 13
-2.6274214279660248 -2.0409347446729469 10.2239313938947323 139 130 131
-7.3736783990582202 -0.0686773526031205 3.5654560047572472 149 141 130
-5.2042579930558404 1.1531699828933391 6.9919554533700250 77 83 97
-10.0447884830287730 -0.2112733536934541 1.5121440448061962 72 69 80
-5.4361454472662745 1.6831279903892895 7.3512635056659805 169 173 172
-2.6207801255559868 -1.2009878997155288 0.1576608700724232 204 201 196
-7.5642461500469693 1.9669232745087970 3.2663943635414849 44 57 74
0.6433171380138827 -1.5070267901972789 6.2458049695391846 158 159 164
-1.7782978017627282 2.7695407349738832 12.8635540826094861 131 130 76
-5.2395075131723257 -1.9367279038972485 1.7541577602158520 37 23 10
-5.0198826555416876 1.0939926508801749 10.9240921913049114 85 95 107
-13.2806079348849391 -0.9751416367831612 3.9260135809480801 6 15 30
-7.2246197257003910 0.3886220646339217 3.1811835372938746 43 47 56
-2.8371084162027507 1.3880619649143684 2.0203784110028300 165 162 179
-7.0952992641264840 -0.2448180920408849 4.3664766873993113 130 122 109
-5.0759178764148611 -1.5932347144212633 4.7304199648925715 91 78 69
-1.3466523228320260 0.8994419600055387 2.0974364401447207 155 147 168
-2.7216984327291613 1.7409666614601058 6.5362922789744013 204 201 184
-2.3637593692927457 -1.0385845007670200 10.5747943870308490 97 10 1
-1.7988582361788492 1.8276852675079593 6.9024935821818278 168 147 120
0.6389959049888595 1.3692538635110172 4.2086546269723408 153 143 151
-5.8026311591013542 1.2673608884050638 4.8157251996796475 64 68 80
-5.1408034593018668 -0.9626458167115951 1.6654772325523755 77 65 49
-6.6340738507328600 -1.7110436563946601 1.6606793761162215 81 64 46
-4.7424665452009833 1.6615840385817349 7.9931808030422715 81 79 80
-6.5073158057469138 1.1036543300966715 6.0792536336793850 77 93 116
-5.7170843756838936 -0.1203287459192057 -0.3692657791295121 87 72 53
0.9136617126418424 0.0386527929677436 1.4697266002161875 74 25 44
-2.6555080781132201 1.8155081370982575 6.3084350163609120 192 175 159
-6.4994862594910829 -1.6675900213089123 0.0291575174055089 129 117 105
-1.8730228812643661 1.8531908885045629 1.3004460145409000 126 108 86
-2.9875393097893621 1.8245919142105940 6.5573360653982897 187 183 182
0.2622913230042718 0.5369384765239313 6.7925554277372759 24 25 29
1.1114118761700145 -0.6866738429303219 -0.9407408075333378 109 96 87
-4.9400615985560448 1.8976418340001457 1.7480062561908627 123 106 80
-2.9374281387658105 1.7634122438970603 5.2694732969772859 155 144 142
-5.0193211914882170 2.1275008826391688 10.6927612080961847 107 100 84
-5.4002748025334446 1.9420334090967808 -0.0814820162665415 104 80 54
-6.4658528860483830 -1.8120908525895274 -0.6554737658592558 108 102 102
0.9752552100122783 1.7197858323108770 0.8508101126204846 76 63 47
0.0214567968357394 -1.9749349354034638 9.0475343440418676 122 114 103
-1.8943364367591478 -1.3595760688122873 -0.7866731795729106 85 68 50
-3.4610961922435584 -3.0757927618903125 1.8399157234018819 25 18 2
-4.4382389249287755 1.6475506220066429 9.3804251548180861 156 146 136
-3.1708157861852930 -1.8515224186041275 3.6934851008273291 83 66 46
-2.0270617839779552 1.4770846954274774 1.4277166852991758 79 66 50
-1.7133346835143421 -4.7830120883864389 -0.3807679749566857 98 85 66
-0.9254626193551965 0.5020207983380969 8.4986526145969528 95 71 43
-2.7633580439403507 1.7849328274314693 6.6046133898895309 178 163 140
-3.7604950900203367 -1.7778460414156039 3.3868318300192217 117 103 90
-7.1214752654480291 -1.9323362395704968 7.1865058324070956 129 120 111
-5.4707775263292167 -0.2439207708160577 1.6526620594663113 146 133 117
-3.1393376691606787 1.8139316302736663 8.6076554765431688 194 181 190
-2.5727657624756528 1.7967044919919950 5.8645349188500662 183 161 137
-7.0283633634296292 1.8004566473232704 2.2370889406034511 61 57 54
0.8849226974181928 -0.9614196526447317 1.0576314333849590 126 116 114
-7.0491787891504245 -1.1242455675210166 4.1640316746608796 134 117 99
-1.9052884037757714 -1.1091598877737723 -0.1671002789109346 82 68 55
-7.2097870088734251 -1.6217847643983325 6.2670882365430032 145 136 119
-4.3396009775744613 -0.0578588748708978 2.5464830265789917 66 54 32
-4.3987546991102322 1.9418829844073748 7.9023441800161356 217 221 222
-3.2838365715694375 1.6451335044953217 1.7519768434913177 168 169 187
-3.9208509068875879 1.7362448195666287 5.7299159230526309 207 206 211
-5.6263260715971919 -1.7274456430203005 -1.0401601059413446 220 207 201
-4.8142718721392939 -2.0900066551643608 -0.2512194614438091 141 131 129
-5.4000960647002936 -1.6950000004520658 -1.2409129029003332 97 86 56
-6.2348660937078559 0.6833055336136373 1.6271738983938835 132 122 110
-5.0672169234796609 1.9160009521581465 1.2370758499614363 71 55 40
-5.8237101834493004 1.4393342249445562 6.8971264319552086 65 73 86
-4.3395472440767335 -3.9544714895621804 10.5467774924250897 93 82 88
-8.8789050261098801 -0.9523235764543081 4.2154617480697389 254 253 255
-0.5424110442147084 -2.2754894900776055 10.8772827227346642 101 89 77
-7.4119747135634082 -1.3368072663076724 1.2923660823465988 86 78 65
-10.8287206690820188 -0.5442172216629775 0.4539577929574719 170 190 197
-5.1787018839996097 -1.9629423015860978 1.8688391772711586 56 47 38
-12.3255261017134519 -1.2601622888764821 5.3404359781949493 50 62 78
-4.2466174783361446 4.7489526319610915 6.1835161243514865 148 134 125
-3.9886917860046927 -3.2733687282699622 8.6134460544979934 120 111 106
-2.8108257676175246 28.8059231104701965 8.3213434566291280 0 6 19
-4.3692642811346429 1.6240878480937970 -0.1690034538291836 137 140 145
-5.4263463338932825 -1.6591568440063427 -0.7557357627045340 108 92 77
-5.0660692668948579 -1.3450671944669963 1.7438967077457896 106 89 71
-3.0441386571093894 1.6826760811174584 5.8745853300562558 223 217 219
