ply
format ascii 1.0
element vertex 700
property double x
property double y
property double z
property uchar red
property uchar green
property uchar blue
end_header
0.2348106422746969 0.4444173483819271 1.8966501304631787 150 122 72
-0.4423051987209440 -0.4579790113794188 2.4819295965073946 50 37 28
-1.0366520653312277 -0.2668617441385160 2.5334626447266557 42 29 12
0.0836303358733806 0.4967246588318225 2.6251140840516007 194 162 111
0.5354624123183562 0.3251337698846518 1.7178488209308747 121 102 60
0.0465579827385801 0.4893030484055524 2.4962328290479134 200 168 119
-1.2723794517971379 -0.4656360604703028 2.2420008095695882 255 251 249
0.5695522876629092 0.4662425120172154 2.3240977435679042 162 132 82
0.1650355703217512 0.4473731624531591 1.8931567723067950 100 73 26
0.2424566171683599 -0.4584880439782572 3.1808070190598818 119 99 64
-0.1597222621788061 0.5138146650762404 2.7923246845316640 187 157 107
-0.2600990068962114 -0.5034542039965678 2.2788749723480857 247 236 218
0.2878809836506522 0.4685072174560610 2.1690875081672063 161 133 86
1.0664961249766975 -0.4424413223536856 2.9254406386665477 143 123 90
-1.7007873934828166 -0.4947805980091183 0.4718138337962485 21 6 3
0.1491126047611731 -0.2035303347656990 3.5351005754457931 155 138 108
-1.1170003375392481 -0.5023024001902020 2.5876787413522138 133 124 127
0.3853082516327893 0.4792197239041169 2.6904310915216136 212 191 160
-1.2190030173697826 0.3600696888777116 1.8470923872089597 218 205 173
-1.2022513100533874 0.5702282996615455 0.8350162669682523 187 156 110
-0.4282834158992381 0.5320647708613507 2.3524812480061188 204 174 122
0.7982639468849371 -0.0442283454959370 1.4396958927806862 47 38 21
-1.9229194494320940 -0.5931601192839603 2.0744031424327747 235 224 218
-0.2099059197325384 0.4741525650309904 1.1037429011144273 152 124 74
0.0279996429052870 0.2020538842144829 3.3396705686877382 213 198 165
-1.0093607885600373 -0.6612840271929811 1.6047522737086655 237 250 255
-0.2018053790616047 -0.3952024134314207 3.6117900015010242 116 97 64
-0.0067992703687009 0.4318385906240838 1.7846986328813901 25 10 13
0.7327832340576157 0.0376597592122561 1.1175715334083929 125 114 94
-0.9309045419634158 0.3019793412000246 2.0084013263081624 71 60 40
-0.2532010854533440 -0.5553190059627320 0.6667931341944785 151 135 102
-1.7611656986961406 -0.6446887896178511 0.3214548144025609 115 101 75
0.8074209574619764 0.4408303810038567 2.3173922054236922 164 136 89
-2.1829366751187012 -0.2119049482879082 2.1543421465935553 153 142 114
0.3851003410997573 0.5170775413962401 2.2151546175775163 95 71 25
-1.7855683527813924 -0.4512512374746126 0.8522610169884547 90 79 51
0.4111224944086216 -0.5536267466252061 3.0407518671735727 106 89 63
0.6723655495320591 0.4938638663313837 3.0377957856353865 158 130 83
0.9769543546470638 -0.1140380903227305 1.7661923449079102 31 21 12
0.2390751839298880 0.4689452478424550 2.1346114964518383 143 115 68
-2.6926152474881171 0.1706500728482052 2.1708308601359469 87 79 60
-0.1097391094151110 0.3082435387932116 3.4681726586636032 164 145 113
0.1913209016054385 0.4684988563975665 2.1649789569573183 171 144 99
-1.1319880923927013 0.2471768703870509 0.5490084160385467 42 49 8
1.3641572475837935 2.4479692836179439 2.6470263109757588 129 105 57
0.8114374479732501 -0.1865720242095679 1.3306742844898773 10 0 0
0.1396343914336000 0.4562644377047178 1.9511609293950078 168 139 95
0.9303730225853631 -0.0065363572361021 1.7671266133095607 117 102 79
0.0445079894520105 0.4805047444325581 2.0549116720844127 134 105 61
0.3302798248242156 -0.5336887253157210 2.1723210466636318 133 115 93
0.7741201496941263 0.0966633842342942 1.2061267036137455 154 138 105
0.4684978743936972 0.4505163321688687 2.2347846483833704 157 135 88
3.0673886013815594 0.0456971432457448 -0.2442151422930045 52 40 24
0.4855786246734161 -0.4798584553523390 2.3790794578199055 142 126 103
0.9192525510610887 0.2831772619901527 1.6382451951272134 112 95 67
0.4800966382395211 0.4639399291784388 2.1725953157041058 127 103 67
0.2123038198607234 0.0491666811697401 -0.0715861248590009 97 82 51
-0.2179659914940132 0.7345165185683834 2.5061683620006527 212 180 129
-3.5511639842116201 -0.1870352314829771 0.5860135844850594 165 142 110
0.8029973914445151 0.4505262994580111 2.4981127503914964 128 101 56
0.5832786206008309 0.3534986443185110 2.1440368630208213 129 104 63
-0.7090110597146528 0.3718280273945549 1.1079834145306815 59 43 17
0.7842741521839428 -0.0893063528907054 1.3444137112718733 20 10 0
0.1381964586537542 0.4676042083349688 2.1418668732071486 183 153 103
-0.4864170567709065 -0.8293704040113847 0.4408977545020247 137 120 90
0.4272054481644430 0.4942945139690197 2.5165310882640144 183 153 101
-0.0044459477171059 0.4530464328533154 3.2120961027939234 124 100 66
0.4765887530474051 0.2572301832047259 1.9688425435378809 17 13 2
1.1952941859342925 0.2149902960638523 2.9298356270290347 157 140 114
0.7405885660277225 -0.6396463297697154 0.9268486245381232 111 97 70
-0.2214187566383126 0.4145628166088920 0.5237957617453018 156 125 78
0.5881402490973415 0.4609753975115424 2.3025148031405371 163 135 85
0.8874689691707555 -0.2184407551906243 2.1040713157854127 28 19 12
0.1199945040270199 0.4837581555960724 2.0918443405866047 162 132 82
0.5452044221587906 0.3521072629020319 2.2216572203327827 22 7 4
0.3813897477700468 0.5244617369621266 2.5911572817934889 163 133 81
0.4258773022034644 0.4932306524470844 2.2793078865757339 175 147 100
0.6853566193407221 0.4128217312207079 2.2459671535035879 156 129 82
-0.2890757330119896 0.4308942044352335 1.1611474197204437 122 116 92
-0.0013743663277276 -0.5049095974536835 2.9615726211143594 252 242 240
0.0972380725199206 0.4409521624724181 2.1293098712321155 141 113 63
0.2687129425043738 0.4476741232411205 2.1584863399158931 166 134 87
-0.5224952164223162 0.4384020898812705 1.0397676931410289 78 57 36
0.5025715406571969 0.4965224549016410 2.8325362765733062 168 140 93
0.2240231852553179 0.4873541490871856 2.5188826286213928 192 162 112
0.2284091032274103 0.4103197077223059 1.5566630250472737 164 136 89
0.4021002236472558 0.4755086998613818 2.4548639585275178 148 120 72
0.8420913685232498 0.4566822541620406 2.4792744205045465 131 103 56
0.3710479356460230 0.5072187503516408 2.5402758737158768 163 133 83
-0.0082736606259395 0.4691184332136389 2.2135877828844710 140 110 60
-1.2689229191097362 0.2856428964889508 0.5573231058503557 183 167 133
0.2095942395843776 0.4878283889890359 2.5564685096551329 187 157 107
0.5492710240728732 0.3558207478225305 2.2152248380360713 215 201 156
-1.0121769404289616 0.5482991535434738 3.1951586120416202 69 47 23
-0.4554183552850385 0.4876018041128419 0.9379034661031964 158 131 86
0.6591750790438685 0.2519414177340499 2.5784783842480086 124 97 50
0.4224176934615909 0.4359156470810975 2.1330102615715107 20 7 1
1.4881809172091778 -0.0534803965533122 3.5776101135160268 156 141 110
0.0879338430344182 0.4719365855507568 2.2520580314033971 180 148 101
0.0019210080992507 0.4940625342976762 2.2163185319117624 144 112 65
-0.0425092542200307 0.4823718050462816 2.3939816913653176 196 164 115
-0.2515234738521508 0.3250014862862396 1.9438357629070540 62 60 71
0.5314733394780626 0.2581550973579752 2.7554472368504808 198 168 116
-0.1704941570361388 0.3571442010627890 2.1086683510061439 130 99 35
0.0300415946442761 -0.2363349679952092 2.0773775535635419 215 201 188
-0.0692446532366511 0.3225507146647164 1.7308604174014341 17 12 16
-0.0055961712607839 0.4305689136948392 1.7931715029333224 19 10 11
-0.0660568044149950 0.4996639954551646 2.3147515301180017 159 128 73
0.6866495514018631 0.4715902897323777 2.6136686747150426 152 124 74
-0.5322130306794469 -0.6199836407448472 0.5429496291491178 136 122 93
0.5939282729500538 -0.5686782862483203 2.5365535707648195 142 125 99
0.5942972295548594 0.4150140495624814 2.2331369081565668 156 132 86
0.5746946856528612 -0.3032972812231048 1.0173013068214121 63 53 43
0.6574938583824457 -0.5120242123886416 2.8103830141009802 255 250 234
0.5121217394601287 0.4698648213521108 2.3439328845335337 164 134 82
0.5430664247538676 0.4615978787882162 2.2451977354931261 156 135 90
-0.8612763702317456 -0.3785067474601607 3.0929333793079694 180 165 146
0.5177038787343213 1.1548381914699914 2.4723905405076350 165 138 91
-0.1678381668157749 -0.4816174874401778 3.0128823613549685 131 115 92
-0.0662636989127597 0.4734988835925017 2.3187840468764489 167 135 86
-0.1253654145679656 0.3851449421895927 2.0807496990108194 118 87 32
0.2043538344289936 0.4505663793981373 2.0755975920847907 168 140 93
0.9357275119551286 -0.0807139378474448 2.2888835902556135 109 89 56
0.6048202607154035 0.5068460164677318 2.8720899012174881 144 116 69
0.5073189908673308 0.4505699641877154 2.2351168971991369 150 125 85
-0.1245286678620458 0.4715912843851889 2.3609996205019499 203 171 124
-0.9896265897264235 -0.2990140050500718 3.1478080989230808 135 118 90
-0.6221480895079546 -0.1341611782200966 3.7229708522370051 75 55 31
0.3903728476756722 0.4572855372029680 3.2284646270003075 69 46 14
-0.5559977464342276 -0.4105158082049553 2.4781326512782615 124 116 114
-0.0494778193619731 0.4296732170212647 1.4697776147721431 184 154 102
0.4027580491314881 0.3909284279693734 2.7195700681013659 189 167 130
0.3870949374230733 0.4844212311690748 2.4397280650453816 167 135 86
-1.0812151756748027 -0.3782674309363258 2.5923101378384246 51 37 36
0.8524127008986526 -0.1838631046199178 0.9229354677697501 22 11 0
-0.1613856840211487 -0.5685181281601511 2.2016056819324827 228 216 202
0.4956642410185562 0.4791250158617672 2.2621085454095526 144 116 68
0.6302546179820382 -0.6832990374707365 2.6467606272499102 144 123 92
-0.1318725519142127 -0.6228056185755790 2.2287545858993365 226 206 181
0.4650171913036209 0.5023315975312159 3.0539097474771499 173 144 88
0.5128158905944585 0.1597087723591900 2.8366370156970264 126 106 73
0.1914495821250746 -0.3368411983780601 2.4591216495316224 153 138 115
0.3923783989624866 0.4287933928001315 3.3322049069435726 188 169 139
-0.0238546296598462 0.4769944305596879 2.2877651462217266 165 133 82
0.2599770412162510 -0.4057920457151939 3.0680549759790252 16 0 0
0.2790349783894239 0.4893989140914206 2.4737217197669485 180 150 100
0.5886261277441429 0.3527074715429526 2.1684209624042459 130 103 58
-1.5637121823875584 -0.3421304404529987 1.2413265969617666 231 210 189
-1.0942524711662580 -0.5600282580948870 1.9627819409170524 254 255 255
0.4341381392635644 0.4456999029760723 2.1654809831564346 131 104 59
-0.5254359727292002 -0.4650887234427771 1.7880064714204014 57 55 68
0.0431457838044216 -0.4298505982046343 3.5132643994205428 26 6 0
-0.0701110075190756 0.3235738599080442 2.0855819044396275 169 152 96
-0.0861039422671876 0.4579572213501361 1.8152088524100496 42 20 9
0.7509430246422267 0.4510233639736084 2.0421318625087075 128 103 63
0.9002811570305556 0.4762736440107254 2.6440973165506154 158 128 74
-0.4831815338747475 -0.4561690473206298 2.8886386759322948 33 17 0
0.4100597361422964 -0.4661205247940780 2.9303115393888870 95 74 43
-0.3716990657377527 -0.5401904292742691 2.9111277294004703 162 138 112
-0.0713511834024870 0.4198789785618896 3.3639429106024634 147 126 95
0.0263730163759113 0.4425103534853579 2.0949724018389411 125 95 59
0.5266506624131765 0.4704964786544338 2.6221056049975604 162 132 82
0.0903903061496355 0.3665608558403059 1.3325477286980580 26 13 0
-1.0101009038938948 -0.4504191596068683 3.6314417189234671 255 244 214
0.8060642991864039 0.5101597509991587 3.0249389122728738 161 134 87
0.4132769971345752 0.4571778294963671 2.2186040475794329 159 128 82
0.0757408576495545 0.4700422802575485 2.2225535185607415 191 161 111
0.8562428187960978 0.0012179680934214 1.9201361494156006 248 240 217
-1.2495054537006349 0.3890402961497581 2.1805497186094200 56 47 30
0.1730036209720140 0.3629972320139205 3.1061775249066099 179 157 118
1.2095780051567959 -0.1882265675290869 3.1943814101618289 109 93 80
0.5549190996391719 0.2914403532895622 2.3783540062765836 173 143 91
-0.9118670093317109 -0.5581998226899149 0.7123132322757684 34 19 14
0.1243947714452854 0.1774377934680852 0.1726866724533899 115 113 88
0.9490463638420571 -0.0712353750179721 1.8901154849446133 182 169 153
-0.2490015475258326 -0.8340298200555939 2.2065220613332519 228 223 201
0.0418147177621736 0.4611356234217432 1.9009190232609625 172 144 94
0.0526505398743964 0.4342986097971818 1.7961723236942377 146 121 80
0.6467487484610100 0.4857251191927497 2.3866456690720215 141 114 67
-2.2839194649113645 0.4608881127644155 3.0605201426725857 118 106 92
-0.1244725151412878 0.2539381543995844 1.4700874619806068 17 11 11
0.6040484276615695 0.4578963379509975 2.2939052031246434 145 118 75
0.9415684466247689 -0.1303121232859014 1.6531407092431609 93 83 74
-0.9641305182481807 -0.6395885960966742 0.9122821487224784 255 255 237
0.2620187090260664 0.2793802212444376 2.1613158061616295 47 32 9
0.3229671498176372 0.4840620340565271 2.7195235634757413 126 99 56
0.8263958220511389 0.4871241289691313 2.6003083894218819 146 119 72
0.8337986587776282 0.4303462603440719 2.5318937963271404 148 120 70
0.4801687259176429 0.4945991756926059 2.6413216184553332 191 161 111
0.9006160884387092 0.0627692256949006 1.7239974137362477 94 79 60
-0.6083406673694349 -0.5352465963065601 0.7736856123842687 162 148 121
0.3528682538187663 0.5013331841358594 2.8619124330092238 181 151 97
0.0780932817573651 0.4727378283537066 2.2118825289361905 111 80 33
-0.5115884648477385 0.2250276536016997 3.2549557936635063 207 188 155
-1.0980249244122731 -0.3486512176695337 3.5179418353998773 255 250 227
2.8111351199032999 -0.7744535669645759 0.6653550326129509 253 242 224
0.0902921987448804 0.4692349629102637 2.2524455722574706 181 149 100
0.2175693028436413 0.3858452675889287 1.5284580592050416 87 60 15
0.4252778042651523 1.3951872702830621 1.8815997262361159 151 128 84
0.9020453168241506 0.4958438033658847 3.1242691458978964 36 13 0
0.4531376548115801 3.4448487975786231 1.1297041174036910 159 131 84
0.6946464641934834 -0.6342911447919346 1.7047679980147110 255 250 231
-0.2221207790830381 -0.1982725079477160 3.6120873066151091 156 135 108
0.1409505504942088 0.4875114970733986 2.2757623062140366 158 128 78
-0.4275778355445596 0.4251646771712947 1.0344053605035755 15 2 0
-0.2809296220102703 -0.4267749465977915 2.9369435279761240 175 159 134
-1.9082452776264984 0.5637356956380962 2.0106095774575414 215 210 191
0.5882846053084019 0.2156960914815375 1.7102572476925670 133 120 103
-0.0869830062137044 -0.3118620684695254 2.4240797859015908 183 175 154
0.9939984455060301 -0.0772050360356595 2.1427137288816356 74 65 50
0.1281116154219456 0.5020064658860882 2.5156328240461479 197 165 114
-2.1089199756826122 0.5012173001375081 3.3378978925117577 143 128 97
-2.2586627453560246 -0.7572083630747665 1.3765501555281041 38 29 14
0.5221648758893161 0.5097454941382393 3.0615161020825368 167 137 85
0.9664287467682335 -0.5403870053194563 2.7153146744217693 255 252 223
4.3391402456281716 -0.2717143585946077 -1.3489729181163121 105 89 64
0.6217371008161201 0.3186997594300746 2.0760517992018039 29 28 36
0.0715212026033379 0.5024494876179826 2.6860567797075028 217 185 134
-0.6684365924470129 2.7009344096031427 -0.1337255284943825 163 133 81
3.0554853075311814 -0.6582818675152654 -0.4681664365554938 137 120 92
0.1996552685575881 0.5046647618945103 2.0748971594126453 156 125 81
0.5214566862109933 -0.7075494596482346 2.3567680792778765 153 132 101
0.2302399363345515 0.9100970518668630 2.1210940663990523 169 139 89
-1.5829983320711576 -0.3692915459571799 -1.0590840205364740 165 150 127
-0.0154732858199463 0.7535051777900303 2.2610044694737539 167 136 89
0.5468693885490502 0.4599694350771596 2.5134028768521688 161 133 86
-1.6765373700426154 -0.5498036080774831 1.0503640640073844 191 177 150
-0.1412706108020030 0.3399358044065586 3.4382324657792664 148 125 91
0.3986585660760041 0.4508533761503680 2.1694972019961623 125 102 58
-1.1797638045030692 -0.1177258684146584 3.7710058602187364 141 124 98
0.9717171833201009 0.4468373417303901 2.5589543441487992 78 54 16
-1.2782521451581090 0.2968989641029833 1.5033165488287341 43 31 19
0.8290786241621158 0.5303372668572492 3.0405860115449426 160 132 85
0.0912437586401355 -0.6481154241114306 2.0468996714973526 164 143 114
-0.1428304754368148 -0.5028780140703110 2.4097368563629695 147 131 106
0.3542077573412855 0.3278664890501622 2.6974652860538870 143 122 91
0.3108935694403487 0.4803110696262659 2.7580281774279216 193 162 116
0.4737144792763053 0.5195875634510544 2.7612890225767490 132 103 59
0.7442189933266976 0.3229061750892604 1.9606745210130940 141 141 117
0.3517542284218269 0.4471858463083714 2.1984541073751576 201 174 121
-0.3150915224190616 0.4044859215743019 0.3706548146335840 157 128 84
0.3562721789220737 0.3586585034221011 2.1165784147859776 7 6 14
0.3876085273832512 0.4835606451339211 2.3903833485753601 186 154 105
-1.5397964302632390 -0.4930579926622761 1.4757506263875433 69 49 60
-0.3770605320145831 -0.5132816537683971 1.7518748469930530 254 254 254
0.5479809500830091 0.4480196017313744 2.3957535669064205 149 118 72
-0.1050410974686022 0.4332597727575334 1.9626393215387734 143 116 69
0.4112917874044139 0.4762182578903695 2.5058460599544445 159 128 82
0.4338413124577218 0.4405298223274035 2.1846411239125727 126 99 54
0.2888802805332551 0.4192515380868250 2.1646556794185319 181 151 99
0.5431438536252003 0.3645086803442308 1.4584766385535035 119 105 56
0.2634565357163166 0.4567720879224098 2.1204977451129605 129 104 63
0.4492060993817836 0.4793330871252640 2.6371997406609959 167 135 86
-0.1649315768080411 -0.4182396809883636 2.4133569497551304 68 54 45
0.4808141597513506 0.4585033833621666 2.4153174237040327 191 159 108
0.6680829402805752 -0.4654969145971371 2.5734211037612087 138 116 75
0.3565310059657705 -0.5109050804795400 2.1258608190110166 136 119 99
0.6739558175978174 0.4210056589515230 2.1282486969672947 164 140 96
0.3451570455531095 0.3390072590533488 2.0407084885228755 34 33 39
0.3105276161328268 0.4963747703448063 2.6319171831954860 175 143 92
0.4611045998315206 0.4478125690863488 2.2003079076809846 140 113 68
0.0632322028446909 0.4258244203913789 2.1392424917211779 65 38 8
0.4912253182068288 0.3732181089870435 1.4175252565724956 13 11 16
0.4336293933545414 0.4540772399200484 2.1623449386818598 117 90 47
0.6276543558494809 -0.5510316273655329 2.3230030779562076 131 108 74
0.1164931571059419 0.4748400700225530 1.7783222349819676 153 123 73
-0.0751900471404040 0.3338584783186625 1.1759580066613777 160 134 85
0.4372950742303237 0.4636328567049584 2.3673404901195347 159 129 77
-0.1688314531346594 -0.4822221104363168 2.3998306253203134 55 41 15
0.4944134569166143 0.4731535216273057 2.3595989831537265 154 124 72
0.1354305330410045 -0.3693282924579659 2.7146468054842670 140 122 100
-0.0630936015651510 0.4828615002652407 2.2715247818048261 159 131 84
-0.3770572982457581 0.3766294844841626 1.3114118698299475 163 161 123
0.0348660426207350 0.4803350442661818 2.2011745962601852 137 107 57
-0.0906465775846018 0.4405066022134217 1.5258430436877479 140 109 65
0.4154249814614792 0.4658440681295827 2.3405845091627007 170 138 89
0.5713960040141617 0.4087563331659381 2.1130023953945885 36 35 43
0.3802951328754532 0.4598231347770032 2.2260370068700710 104 76 29
0.5444807989845946 0.4602670432226371 2.2576023222831307 140 111 67
0.2497229252481089 0.4620102925563508 2.1215809064297853 89 62 19
0.4850588078129391 0.4783398761773600 2.1684851495949742 115 100 69
0.2103694528862880 0.2890606067486029 2.1277120569958203 162 131 77
0.1304687823180269 0.4447754715781023 1.8554775717526677 142 111 64
0.4774480495293253 -0.4129532067279633 2.3734212082484096 137 117 93
0.5397171734467551 0.4869508088428666 2.2648287621038565 126 98 50
2.0197833802916532 4.1962343040982777 3.5036431115601818 167 144 94
0.4228921677101277 0.4718161874955710 2.8001557146534344 141 113 66
0.3065723422584267 0.2997006143814790 1.7223396962566075 134 132 133
0.6036580577368076 0.3215769398346582 2.2129806239813523 68 51 21
0.4168915147941504 0.4515755657690965 2.3305098637397101 153 123 73
0.6040263843505048 0.3125167475129116 2.0753493574408206 36 35 43
-0.0685704817458698 0.3780930319313212 2.6220643523220240 50 24 0
0.8322963116822449 0.2871994721139576 1.9800959807719147 38 28 26
-0.1055804614991929 0.4645119944409116 2.2345977402987307 110 83 53
-0.0212235801566452 0.4777941566482334 2.5099321174803149 174 142 91
0.2117197825295649 -0.2317419601843864 3.1936570077500961 157 139 115
0.3109521542089044 -0.7396722296973193 2.7261012759250298 145 125 98
0.4197461091511440 -0.9787681135788455 3.1851279810865258 149 129 102
-0.1742433649689145 0.4448032942807261 1.9253772392433208 57 43 14
-0.3185414774335454 -0.3639209181899226 2.4544758304063796 128 115 96
-0.3766415652283715 0.3778278953262205 2.0261179175408728 65 61 62
-0.2932758139728771 2.0410823864366563 2.3680297985913197 199 169 119
0.0516461867234338 0.4745219295148304 2.2206231453228500 147 114 69
-0.0793826889327452 0.4348406586711572 2.0783683270119417 55 35 11
0.9302884248461253 0.2920762906711858 1.9425029469072816 118 103 84
0.5492555945607823 0.3519854711334941 2.1371489126419601 135 113 74
0.4452516273236310 0.3158184175737691 2.7457015828045259 193 174 144
0.7274434458429914 0.4576793701943384 2.5108958288267620 150 123 78
0.9287883376026486 0.2166953419648514 1.2422119509044192 34 24 12
0.7092834383155158 0.0895891809006493 0.1197459827923419 126 109 89
0.4037437540372920 0.4932435904597372 2.4965464047053763 133 102 48
-0.2966278869949037 0.4400071929150057 0.7636475747863128 159 132 89
-1.2057420115821129 0.3993596438232902 1.8134996468322835 31 15 0
-0.2391399715740104 -0.3329150441868578 3.3342627944354812 146 127 87
-1.1222949996469287 0.3888906265760432 2.4437667888395209 238 226 184
-0.1805405701524140 0.4080974118800237 1.9368856688837841 148 140 103
0.5361532400250087 0.3621407750112896 2.2207467057729615 161 142 100
0.0461849888025524 0.4748469812601708 2.1841101612991802 158 130 82
0.4257746018039805 0.4994976894668228 2.8958356208039366 162 135 88
-0.7881987276793931 -0.3203733879427139 3.0619969826656770 24 7 0
-0.0983677341295101 0.4349788296516023 0.7054634292506953 145 122 78
0.4039091574078709 0.4689147262937203 2.2966867223269820 173 143 93
-0.1675055795248897 -0.4687371950196136 2.4091038782021190 159 143 127
-0.5218336183809371 -0.4622352126385207 1.9448827785218759 238 255 255
0.0172382508240554 -0.4609478145472572 2.8783301196889748 80 62 48
-0.4520654086122077 -0.0232742389398611 0.4396083165803183 145 124 95
0.0004494038463437 0.3652170325289085 2.1087489164775852 179 150 94
-0.5928437777323288 -0.3757699005693010 1.0218178843154799 255 250 251
0.1462736456141667 0.4511729079990375 1.8691703893904354 154 122 73
0.5141008766613082 0.3926259683768044 2.2347774540007901 134 111 80
-0.2375993752694032 0.4579171044745964 0.9059898204907766 142 115 68
-0.1359746733005176 -0.5337096492526238 2.3941506072747085 152 135 105
0.3140635185503819 0.4892328090949487 2.5166436896749866 188 158 108
0.6899972294749062 0.4733115175280788 2.9160341882204559 173 145 98
0.6905193484365491 0.4665745745373521 2.4528764631285807 145 118 65
0.2179472130246279 0.4521012524698846 1.8846924713364706 149 121 73
0.6226264196893200 0.4733527244950715 2.3407389850781710 150 122 72
-0.0494485429982176 0.3276821138799193 2.0415038585523946 131 110 65
0.3032556913578248 0.4844775545939135 2.5651687056374568 176 146 96
-0.2714951834280893 -0.3482856072041425 2.4477231159073627 45 30 11
0.4463843002394635 0.2401016001457453 2.7175540686492679 10 8 11
0.0681529836308275 0.4563024063767619 2.0692811867266503 146 115 69
-1.8518347916599858 0.0401929989648381 0.5317890840040755 159 146 114
0.1595310025405093 0.4669290776740730 2.2087186262728720 157 125 76
0.1446786893062927 0.4752845777193618 2.7417618172998450 183 161 122
-0.5766021897771553 -0.4602775200465212 3.2797827471016685 113 96 70
-0.5080467867162951 0.2679864071299231 3.2539439341775473 75 60 37
0.4470893821166378 0.4746307202032726 2.2957196362566523 182 152 102
0.0766682006018377 0.4716485489171606 2.1979967962598592 190 160 108
0.2984326467724858 0.3879837392103053 2.1556735175645492 194 177 125
-1.4637548791542563 0.4207281732042332 2.3918777734626335 144 132 92
0.6496839999283428 0.4816808648143923 3.0530444227403080 150 120 70
0.7652306275489068 0.0420816273389034 1.0980088433430339 41 30 8
0.5752354661926261 0.4724010836785683 2.3910698326190922 177 146 92
-1.1879211375345669 -0.2805028558613590 1.8257360949021038 255 245 251
-0.3922435856681131 -0.3028401150092352 3.0305665132835253 121 108 91
-0.2949957644966262 -0.3349979639971670 2.9307653118872192 36 23 4
0.4043538233000573 0.4852770896477168 2.7242221820145822 238 213 173
0.2439875978671740 0.4157418346845132 1.7932795312561276 125 100 59
-0.4635791306823314 -0.5942447820384046 1.0055926536502329 228 221 195
-0.0165614041583446 0.4731502705428851 1.9694718361292800 156 125 79
-1.9691078609266823 -0.3979957419271949 2.1917831110160355 124 111 103
0.6242930863138360 0.4691612498690111 2.5490615541538530 117 87 37
0.3729758333027975 0.4655838565028316 2.4258736017051272 173 142 88
0.7076124263814454 0.4670001449728093 2.2224783269432211 134 107 62
0.2281928690564981 0.4886654781886428 2.5003995765788951 167 136 81
0.3367943288160450 0.4392211727092937 2.1938000084967144 179 151 104
0.5145577335121564 0.4941659871841839 2.9351032427179109 141 113 65
-0.0124447547994746 0.1905110686641293 3.3711360591325517 226 210 177
-0.7073211498246799 -0.3917792362956567 1.1887368427892486 16 0 0
0.8673077500159412 -0.1898558983482690 1.8006653065790954 115 106 91
0.7885512507947062 -0.3100451056239813 1.1442626311149984 98 84 71
0.6824956833649021 -0.4714074379690191 1.0250357182212617 37 24 5
1.1217064772532148 0.4534019630049791 2.5524813613643476 73 59 32
0.3659591539726261 0.3444903313471084 2.0603777809663422 40 39 45
1.9094977952845869 -0.1068329342269218 -0.6408647589588121 99 97 76
-0.2663422262486069 -0.5295372651139805 1.9150526993125114 255 253 241
0.0028612111223033 0.3246927329543841 2.0887711073648720 115 90 33
-0.0752833203616809 0.4576631686973606 1.9534123615727539 123 97 48
-2.6124487179430123 -0.3694267699901195 3.0683560523359641 32 17 0
1.0723549488147686 0.4450700642504191 2.2921846284197875 83 62 33
0.9230277244959048 1.8262177024172754 3.3069814484532274 177 149 101
1.1476554499720604 0.0234120759644597 2.7298843259882002 18 8 0
-0.6900699209538296 0.3352587161730126 1.1348103209294695 176 148 101
0.0617089645565202 0.4546397970689799 1.8713317092263979 167 139 89
-0.2881125449784735 0.4572708619475748 0.9717860429540152 66 41 1
0.0733699034452458 0.5036207239708606 2.7762513188770028 200 168 117
1.0177223520055230 0.2620184607247553 2.2147287524418395 140 124 108
0.4074488953690916 0.4763166641790770 2.4702109459406949 167 137 87
-2.1281898535204915 0.4135476872639302 1.7855132723533345 190 172 148
0.5677887063630236 -0.1970859191931461 0.8613893302039884 116 105 75
0.6187845931682836 0.2098396986713744 1.5284327807740163 92 81 59
0.9825955188159069 0.0208140182879098 1.7041759490642707 63 48 29
-3.2056953425158143 -0.1337479666152103 0.7072238653961790 103 87 53
0.2149147700888041 0.4582245909256114 2.0220454651222246 162 132 80
-0.0977040352338395 -0.5862724335235463 1.8523856663606686 129 113 80
0.1906558218668840 0.4545066297221840 1.9905660989018514 181 151 99
-0.1956134792447078 -0.3860438499037629 2.3224728283660450 253 247 221
0.2638601185549967 0.4789496424754450 3.3754275651104364 143 123 88
1.5092565748415192 3.0687078104699541 2.9715179079029506 181 151 101
0.6449631673013867 0.4665032275511176 2.5054234403010844 144 118 67
-0.2390267436069903 0.2521918714984546 1.1036410124125102 160 150 149
0.0354120425995326 -0.5338260871240943 2.8653006241656334 155 135 100
-1.3767395094136619 -0.4380216325060323 2.3462438837272876 255 254 237
-1.1165276991253215 0.0637580956629140 1.0731986405045335 139 119 82
1.0264384648822156 0.4027999888913106 2.2136280181553603 137 116 89
0.5113001180702862 0.3117408462194266 0.6843081075429999 136 119 93
0.5085118137731826 -0.4282614048616095 0.5646962645116288 21 11 0
0.4479829325650591 0.4744219210177611 2.1331079809311717 84 62 38
-0.5066146554655475 -0.3482561810345117 3.0077716525408942 123 107 84
-0.3102774433670297 -0.2203204612338709 3.7209808666062791 150 129 100
0.6177005371408141 0.4701299388847029 2.3090686867265644 146 118 70
0.5159523577117036 0.3677301026009077 2.2349602806348803 159 149 90
0.5796778665612815 0.5307286276070088 3.2206686482257565 130 107 63
-0.0683047826965722 0.4883395594065715 2.4914424532012864 201 168 115
-1.3684151586289908 0.5138903771275284 3.7343480425692639 126 110 85
0.2999314921326173 0.4297723835108859 1.6734449684605104 148 124 78
0.1813713474293039 -0.4791946434461841 3.5457347831382795 120 100 67
-0.8137864022924157 -0.4798325546946692 0.8368126296911118 19 10 0
0.3253048915320363 -0.5745001688195698 2.8471681449495287 145 125 100
-0.1480427237676730 -0.4540534236789982 2.3926572141749669 51 35 20
0.3569664313902617 0.3932207298255431 2.1071684293118649 30 28 41
-0.6520131961518542 -0.3668978527228591 2.5238655971405120 54 53 59
0.6083376666492590 0.4703855203664629 2.5349998556792603 161 130 84
-0.2841508457033241 0.4521975999470119 2.2534957304509073 214 191 141
0.8882733745710658 -0.0949592709095747 1.6072515185702474 236 223 204
-0.1004526483710015 0.4619446608537571 2.2332968873484536 111 84 54
-0.5864869029337256 2.3521167145500033 2.7879174834544349 160 130 78
0.5425146045673169 0.2845806917284331 1.7040531685301978 18 15 22
0.6886847343626216 0.4544727248214855 2.6947455344629963 148 118 68
0.3015972786639371 0.4086139711111803 1.9035063648559873 190 182 161
0.2960550309387772 0.4788823269288927 2.6216814174960086 128 98 48
0.3335151638549472 0.3241994193627319 1.7808763354235706 147 122 81
0.1361529922587668 0.4909719577627994 2.5746799140870302 198 166 119
0.2642372589133966 0.4484985638377638 2.1031689885323743 28 10 6
-0.2201380399998411 0.4295268638231284 2.2343564573683641 244 219 165
-0.0237414464992744 0.4294687235257202 1.6792005046737772 142 111 65
0.2725621382479718 0.4817459607387962 2.3552025621083716 155 124 77
2.2542526600322508 -0.2956735588651540 -0.6178060257724763 44 34 22
0.0045324773016804 0.4671297312552801 2.0276755621326532 178 147 101
0.9242960394136083 -0.2430014282358122 1.9536931421274986 69 59 47
0.0031600173909438 0.4490242832543658 2.0419477101300458 148 117 71
0.5450457725112146 2.2960408300888724 0.3655693435722863 152 124 74
0.2548162612485584 0.4930416733845661 2.5542623388471841 198 167 113
0.3957614197783177 0.3769607482566199 2.1045373604797821 47 45 46
0.3596072792572435 0.4838748744745415 2.4332875582446625 142 112 62
0.1196420286763758 0.4838752640140806 2.2637270532323046 186 155 108
-0.7871610265899864 -0.6282358615370485 1.3524410318404714 36 27 12
0.0923372701375662 0.4687725332422126 2.1956515430142929 153 123 73
-0.0803448552683151 -0.3377026401792345 1.6716960863725301 180 159 128
-0.1771799687769642 0.3898539500155199 2.1895278736984500 200 173 120
-0.1598741342324258 0.2839416847725504 2.0732204747497849 151 133 95
0.8772766314684544 -0.1144878272706742 1.8278639964996910 242 229 220
-0.0593975032665642 0.3497355782535562 1.7808932786470570 14 9 5
0.2921291465944904 0.4777543651477139 2.2716475225914206 148 118 68
0.6245719730115795 0.4627124322815785 2.2539146825107985 157 133 87
1.0632737135995538 0.5679941177374921 2.5610416268357787 116 93 51
0.6321175145517588 0.4807375813415894 2.6190385557381561 136 109 62
0.3010687348474340 0.5033886459775369 2.7761654131096400 169 142 97
0.4238559839470447 0.4569546407185159 2.1424306196494820 121 95 58
-1.1160255286105638 0.3012173542228890 0.6801469772345030 178 161 141
0.4851379705299155 0.4960599717700179 2.8963390579437100 169 139 87
0.5705429691484124 0.4206310813958237 2.2443201171358935 133 108 67
-0.2756862324180995 0.0235686785813415 0.1077964555297096 34 45 49
0.3380713190587195 0.2831028161713574 2.7234555777952281 14 0 0
-0.0980789698218893 0.4797068693064139 2.2274309945372974 92 66 33
-0.4892531915941726 -0.4555357664574423 2.5587091262513297 56 44 48
0.0734176394013036 0.4762970964174339 2.1675794700405855 162 134 86
1.0662799240243002 -0.5419364519138961 3.0140240703972569 161 137 113
0.0085238210107025 0.3297302488907443 3.4607318315527951 122 103 71
-0.1274840296458923 -0.3068274443040903 2.4396435285865814 43 35 22
0.5347593056795287 0.5072022759934742 3.0066885560292116 173 146 99
0.1370506406875193 0.4476441606767874 1.8546859895852104 172 142 92
0.3778782573966614 0.3359943056544721 1.7294523060267806 148 121 68
0.4047695202969390 0.3237844788932144 2.7604067886752741 158 131 86
0.3379443543072533 0.4879189557177425 2.5820377650457158 163 133 81
0.8993203317960432 -0.5401236942642711 3.0881818408554085 102 81 50
0.8491478742446272 0.3116879198466713 1.9037722727604127 85 70 51
-0.0365793763285641 0.3293767947903581 2.0973007423252894 204 182 125
-0.3341857707898152 0.4237096513628766 0.9718411773755486 6 6 6
1.1493402465082019 0.0438082566130446 3.0216675403464222 148 184 174
0.4671165301631114 0.2411897664665143 1.9787180917444800 167 159 138
0.8677944191810802 -0.2608700928683991 0.8150819177965370 139 123 90
0.0492822509676325 0.4972101423122003 2.4288418696947325 198 166 115
0.3700803555845393 0.4660078706750259 2.6434220184968593 163 139 101
0.6804629383343769 0.5043433852463510 2.6884205695392609 153 126 79
-0.0960081434178641 0.3592170138569504 2.2497692571323951 179 156 106
0.0681631158706125 0.4618823483564826 2.1900149387394299 147 118 74
0.3138604879988341 0.3590385007120857 2.0644882294027420 163 143 110
0.8534711529927410 0.2784508635277786 1.9457866392382848 113 104 97
0.3305235045842715 0.4619920091036663 2.1738639638992376 118 93 52
-0.1093678979089247 0.4375652070674786 1.8944745767663154 39 26 9
0.3027586260319093 0.4645828761642425 2.2741349283543260 141 110 63
0.5459955521901638 -0.6746723671775694 2.3473776806225595 124 103 72
-0.2272639597372426 -0.3967628114575565 2.3763963845755947 144 128 103
-3.3295281285157095 0.2882555718270826 2.7496057334506889 43 32 14
-0.2636050039915633 -0.4611185844513425 2.4323068190338670 46 31 10
0.1274970340587554 0.4800490417184848 2.5012965000771481 148 116 67
-0.0555969701289067 0.3613644237086121 2.1605247612934573 152 122 50
-0.4727573955286601 0.4753780565178786 0.9433862125562684 131 107 61
0.4281330869879925 0.4583614752160889 2.1781759116543951 70 43 0
-0.6789974593968539 0.3736078768662044 1.5572979449593669 174 159 136
0.5763297887283780 0.3793875009625291 2.9274755241123658 130 106 58
0.4577707069986300 -0.3278052415595834 2.7257457872865296 29 7 0
0.6038594730774505 0.4402248916872837 2.1696324053388798 123 96 51
0.4454199733532463 0.4600002890425484 2.3324106667927946 156 128 81
0.2858731620210793 0.4798515206452910 2.1404359376244200 121 97 63
-0.0570876668705590 0.4380645460291132 0.7120548438504538 112 93 63
0.7759949150260724 0.4291573633580639 2.2696612178750462 170 141 97
0.2632564841724527 0.4598133917068974 2.3313985195086731 155 127 80
-0.1475102524446490 0.3407792207118798 0.4661930119031359 120 104 68
0.3356290815866019 0.4817533760084092 2.2836696637466400 157 127 77
0.6789688248918222 0.4732932445832616 2.8285938938105692 132 105 58
0.5494321590920354 0.4371286681621059 2.4284242097438833 187 157 107
0.2804504069749884 0.4379390335309836 1.8109935638160717 14 0 0
0.3529377860116732 0.5384276356290760 3.0338123046400978 159 132 79
-0.1011282163622045 0.4374435281912675 2.2126452229559805 152 125 82
0.2880063970734880 0.4917261419447549 2.6117884965689493 183 151 100
-0.4982202962867915 0.4535444392906970 0.8014831450214607 112 88 44
0.5812039879403245 0.5034949585869418 2.9824617153380522 141 113 63
0.1989168585073434 0.4959548126307482 2.5133394385097327 202 170 121
-0.2520966582338104 0.4496042978336158 0.7675892747318728 160 133 88
-0.8115706747540871 -0.5188607182940046 1.3381930275838707 77 66 62
0.1130923699020905 0.4809036039396929 2.0858299449706070 153 122 75
0.3511648270236790 0.4545460673049677 2.5119209237450963 207 175 124
-0.2001002843184870 -0.8404628990425863 0.3259330701076761 149 128 101
0.0762242805231846 0.5007072948421792 2.4332618055060338 183 151 102
-0.1287773493049366 0.4361310103677561 2.4131623943258580 208 176 115
-1.2420267319522684 -0.2206429462060150 0.2283583021996142 159 138 107
-1.1221576832056954 -0.5078326563921837 0.9235661690751084 139 129 102
0.0222072990406807 0.4937167808125714 2.4390549789717717 147 115 64
0.6266416302107694 -0.1736951548616972 0.6725761512571965 142 124 100
0.4710715886393422 0.5540459916918223 2.6365359744714736 171 141 91
-0.5931905217148560 -0.3981999903983351 2.4466155652916668 130 124 124
0.2647055258583855 0.5000772907777506 2.4021896411049419 153 123 73
-0.1477366159506414 0.2405191083983960 3.4205029929397419 78 61 33
3.0190535215116800 -0.2499622069974473 1.2073764590986025 76 63 46
0.2436656027719481 0.4925205161779687 2.5531127216989744 171 141 89
0.3721388773670125 0.4654790975202201 2.2785088744006314 89 59 9
0.8084012020466801 -0.3799768072273216 1.1622037628280872 76 66 56
0.5356256837078106 0.4823774611604708 2.2642471714174319 126 98 50
0.7370642201413083 0.0819609391479854 2.4743260680401771 54 36 22
0.6625585575977282 0.4992419522160825 2.9024082593384954 146 119 74
-0.0657543569636168 0.4932993471467048 2.2909474406224200 157 126 79
0.9151392951817442 -0.0033104073876625 0.9346504139926453 95 89 77
-0.1688620722382977 0.3558356568224257 2.0908618978883768 215 187 140
0.0292171377577967 0.4070528221088472 2.1927043417522811 133 102 48
-2.2077613540582375 -0.2118662290360422 3.8300871606177620 153 137 104
-0.3449602872494378 -0.3745284324277116 2.4631097992782127 135 121 108
0.2066092739575397 0.4811721232359432 2.4857184139698294 203 171 122
0.5219342036539961 0.4677273736090452 2.4219042488307037 168 137 90
-0.5974013679871312 0.5158038989970120 3.9657253287548997 161 138 107
0.3368306711314667 0.5007107903324588 2.7575050674755519 166 138 91
0.0213515030774640 0.3384185350792265 2.1017034409785533 236 207 141
0.0096401519493550 0.4857018681870754 2.6531406159300306 168 136 87
0.6117047257336605 0.4672915379901533 2.2760051728275248 142 114 67
0.4707396495590317 0.5513235819933670 2.8614927836531447 133 105 58
0.5130947579336057 0.3408781893169714 1.6502922641090285 40 36 37
-0.0280143723689724 0.3218989657789288 2.0978043229962373 199 176 124
0.0172357793415760 0.4062468705627283 2.1968873443247499 137 108 52
0.4588857650006338 0.4627057730865662 2.1944928866714513 147 120 75
-0.0788416620484015 -0.4376453501348478 2.8655912616333632 128 111 91
-1.1721508400221596 -0.4997214506175333 0.1304088536911250 214 203 175
0.3722474100256296 0.4958434934427383 2.4346518457304165 161 129 80
0.8807447874441773 0.3134083782322734 1.7615090545687024 61 44 26
-2.0579265080163731 0.4674217155494131 2.8146929929242281 27 14 5
1.4538453375815912 0.3641326460096964 3.2052293872987438 119 108 76
0.1637035648081034 0.4715930845995454 2.3647334244505127 179 148 101
0.8943527815367759 0.1200218316450657 0.9863962072397751 105 93 67
0.0922157574233162 0.4662587990223577 2.0851096969343397 180 149 102
0.6118563541290956 -0.2533366576086560 0.7033949848217815 104 92 68
0.6322994860796843 0.1965929310129895 0.5228649678320907 136 119 93
-0.7686977402512839 -0.4498214968640157 0.4171475767376768 192 179 144
0.7146310056219736 0.4878099854118489 2.8826617097587670 164 137 90
0.9917691233826897 0.2120958381742148 1.0419425453894924 75 66 51
0.1227926669285418 0.4524666344939189 2.0231110581703997 154 126 79
1.1458887955197374 0.2752391663886225 1.5463221256217217 37 18 14
-0.2938086734969017 -0.2386161480729391 3.2659237213732175 135 115 78
-0.4802808128129897 -0.4149120971522791 2.8594836174357203 135 119 93
-0.0309788132666553 -0.3088911141302507 3.3771729692396040 124 104 67
0.6788744067317153 0.4529707172732977 2.6394921529609663 158 130 83
0.4579416130688415 0.4707195043547833 2.2073888895461633 150 123 76
-0.6694792739544891 0.4110795349591655 0.2333192947880106 136 109 64
0.7198285552328136 0.4955351816658017 3.0067727382790133 74 48 0
0.4643586321682034 0.4586190325272259 2.1459831771330431 126 109 81
-1.6124603969678559 0.3195893041269541 1.2325679657710811 22 13 6
0.1285842020189150 0.4846325891551160 2.6262209104786765 181 150 96
0.0726037579338814 0.4735994165505504 2.1303535221748580 139 110 66
0.0696717905885552 0.0178212473325117 -1.8238171161284260 122 153 171
-0.0557100111387522 0.3443732191637405 1.7871379535410665 18 15 6
-0.4534192369657278 -0.3061848396180568 3.0737793194285974 138 121 103
0.6982062712953975 0.5738060973503862 2.7081307710908629 141 114 67
0.5135595929204690 0.4794392091016446 2.4615891157720302 181 149 98
0.4344140155286008 0.5026274886013875 3.2120557491574337 36 20 4
0.4104115127496634 0.4925710109312847 2.8472042966407112 141 114 67
0.3097733717090763 0.5086252963050411 3.0874524875557916 185 158 105
-0.4452610542828779 -0.5175332196062288 2.9685458979446411 144 133 113
0.3849771804583466 0.4712402618738543 3.1948550012287091 29 10 0
-0.8841149647666086 -0.4396170449066538 2.6021557605477179 38 30 27
0.6465301709119632 0.4621330096867014 2.4253598698061940 169 141 93
-0.0561041088458379 0.3557303908304297 2.2046820992543643 206 179 124
-0.0060779821546433 0.5051513509336962 2.6197217108633404 196 164 117
-0.3082295262542413 -0.4949774723484857 2.2889149983924852 254 244 253
0.0363398526480335 0.4582473792632795 2.0937078695016078 132 104 64
-0.5384698776179609 -0.5524940626018084 0.4575032636537991 182 162 129
1.1076689937762387 -0.3452287302979378 2.1865043448506016 57 48 39
0.8132075642055162 0.4466178975946427 2.5870588047136711 135 109 58
0.3109136697800800 4.2775301844730578 2.0615340581847117 110 102 89
0.2776755647326120 0.4393782875666334 1.8224180312082585 111 94 78
-1.6632493471967382 -0.4833628885631236 2.0208998253743662 255 249 249
-0.2407408615790711 -0.4153004399346432 2.3809018949790648 144 128 103
-0.1725643891454052 0.2821876140830065 1.5091982491947808 27 25 30
0.4235501134322037 0.4452861711301371 2.3458703727061305 170 139 92
0.1901569467570372 0.2538331887888681 1.4992976256745494 40 38 39
0.9938645526136947 0.3035201211045789 1.9377731600507144 108 98 96
-0.1016777989247504 -0.4729134015478784 2.3949494742146160 22 6 0
0.2839593620701565 0.4239495699553095 1.8665061527870022 155 127 87
0.1458814318146028 0.4514347104224343 2.0310408978483676 150 122 75
0.4400632147545192 0.2919178703905580 2.6889338814835679 229 205 167
0.5505269753098958 5.2210824911887208 0.6862217363266446 98 72 21
0.9345988357170649 -0.2702988429242124 2.2877849216321975 86 73 56
0.0408544503488700 0.3564674141951666 2.0887009881769014 173 143 93
0.4103575108246900 0.5025054026500512 2.1810157862191497 141 114 69
-0.0161789804868727 0.4504845457069884 1.8907687965655571 149 121 74
1.1258470984772837 0.3252641504076590 1.5014319265302136 121 104 58
1.0670725538097328 0.0419581452816798 2.6920578369129373 25 15 3
-0.6817080368881211 -0.4916461144296099 3.2207848602436022 78 62 36
0.9230716622113931 0.3789235438705563 2.6227314662159822 130 106 58
0.3155622807276752 0.4675689304620081 2.6048128266000177 168 138 86
0.3562775955709924 0.0520821151141228 3.2788745538454984 165 149 116
-0.3476748933811353 -0.2923840589565971 3.3104893679390539 105 87 51
0.4151765194606121 0.3955493783388165 1.4288826564678927 10 1 0
0.6941232531308229 0.4757566033812814 2.6623000421492495 171 140 93
-0.3997701611326008 -0.3407248294733939 2.9649917887595341 58 42 27
0.4254767062578336 0.3027852170691359 1.3849363585945154 7 5 8
0.0678520338373977 -0.5422637324183296 3.3679073684120477 157 136 115
1.4242498675392306 -0.3203576394346153 1.5812344895164678 255 251 238
-0.0105903411651737 0.4654835234818889 1.9798157667280072 157 126 79
0.0655555503197157 0.4266054706627297 1.5977542159126874 178 148 98
0.7740895571484981 0.4556581231966074 2.5714048607664037 117 87 35
-0.6314271270451501 -0.6231269434516223 1.3247948627883048 237 229 216
0.7653888363999999 -0.3632161969659405 2.6046567868731945 132 112 77
-0.5864924643389735 0.4777706367327773 0.9578116577506991 142 115 72
-0.3450441528577513 0.4847550204790583 2.8839688354160504 22 1 6
1.4762389395359978 -0.1450776239938598 0.1862901237751734 28 19 24
0.2994258503467585 0.4925452678783590 2.6766709893426421 139 114 73
0.6000468915566619 -0.2522753488827300 0.7838193857699775 102 90 76
1.3326093120607785 4.9676928323541611 1.8104926307552422 119 95 51
-0.0053239124055158 0.3513163694306295 2.0954198640084525 136 110 51
-0.3946947707706403 -0.5364713736467873 1.9368640632102896 255 254 245
-0.0565867050003887 0.4744045737600947 2.3621751323189311 178 145 100
0.9362766976740990 -0.0888705772045774 1.7804989820641233 38 24 11
0.3820530607125601 0.4913802426958306 2.8056656682411023 136 112 66
0.3261536644949991 0.4929938020986836 2.4871965339896644 194 164 114
0.1185698592608388 0.4736035155203505 2.5249543792794249 187 155 104
0.3598374484796590 0.2959611911150467 2.2436782025658912 139 111 61
-3.5259340390150928 4.3620678566774593 2.2268900175589357 181 149 100
0.3948602192886339 0.4812319773533474 2.7786377829898141 176 145 98
0.6715513720797022 0.4865920463031904 2.6944323079261472 157 129 79
0.3685516021360583 0.3403706228602330 2.1420761239870254 31 33 46
0.3551558720804323 0.5110047636585046 2.6271801420415590 183 153 101
1.2350413874504842 11.0978545800512922 0.5104929754827983 50 40 30
-2.7065952870412051 -0.4901635128694933 0.7896766582247577 132 116 82
0.9096830548291091 -0.1392680946454373 1.5952244634643418 48 35 18
-1.7925899415152240 -0.6512848380625954 0.9196940222179270 163 147 132
-0.7844405691014077 -0.3192235558271097 3.0628991153460232 40 19 0
0.1057440871291620 0.5073425171341827 2.7980955037609090 54 24 0
-0.2132438287156284 0.4338598038561329 1.9463730949097680 63 35 14
0.4813483444666393 -0.3298370683327501 0.9900903262815549 139 125 99
0.8430999689281911 0.6578295159754028 0.6392557019525729 104 90 53
-0.6317115559903193 0.3072811345496842 2.1310198165381689 255 253 224
0.2118151760154532 0.4540696635064157 2.0413743530031603 160 132 85
0.4726953527529969 0.4457226176983943 2.2473196571624974 156 125 79
0.2816089843185370 0.3607798252575526 1.9958323491393004 211 204 185
-0.1430146309406893 0.7208164242957659 2.3799067304889023 175 143 92
-1.0218067310117465 -0.7318893082026593 0.6208331507782356 40 20 0
0.2916867862094919 -0.3469132612736839 3.1548440210765203 63 47 21
1.0269741577726037 0.2962698870011518 2.2078241649344870 130 111 81
0.8108341788008758 -0.4758335402024143 1.7621540564556799 146 130 104
1.1601875843872034 0.4703828527689872 3.2100104277040540 170 155 126
0.1623579135768231 0.5143478755720311 2.8500817295062775 194 164 110
0.4819069095385179 0.3039322532281005 1.9664070915153244 92 91 87
-0.1246629461455893 0.2333792238015772 3.3482218963173205 23 8 0
0.5755701437129980 0.4918984496064637 2.6756955885489315 143 115 68
2.2845630407591950 -0.9261035082524761 -0.9220998809602311 49 36 27
0.9036511494931857 0.4925299970986325 2.8901402415617548 157 128 84
-0.3521376037506310 -0.3475878436491775 2.4738257489953601 56 47 42
0.2697654761789182 0.5621214597452654 3.4160317367009405 45 23 0
-0.6268555806650259 -0.4859609200515762 2.8304338792026371 132 119 84
-1.8732466292195344 -0.3807498218824901 2.5677551991603131 121 109 83
-2.5964650408240662 0.2152927520755964 2.7269474396943756 76 68 49
-0.2894304470780177 0.3345131103353002 0.8830095428128180 22 9 3
-0.0738266606145192 0.4562962808999259 1.9704679640012954 170 142 92
0.2560634615668827 0.2662986498452881 1.3126860649089735 17 17 7
0.0759720959507609 0.2078222086739163 3.3742400596093560 27 11 0
0.4634661948595588 0.2916502410911731 1.9263165093315386 46 45 51
0.3618828977402306 0.3630781267973075 3.1861308730968210 168 149 117
3.0547268731122768 -2.4935760347340827 1.5513972074455866 135 118 88
0.4620362709299706 0.4597968015342476 2.3131801112236063 94 63 17
0.4631083013924349 -0.4609427335394545 2.3609782418557685 144 123 96
