ply
format ascii 1.0
element vertex 700
property double x
property double y
property double z
property uchar red
property uchar green
property uchar blue
end_header
0.9852809351779996 -0.1877766835848176 0.4256356822493841 160 151 136
1.2113021763514620 -0.2850307138389810 0.4741643815475305 138 129 112
0.9292385123335317 -0.0722345117327545 0.2483756555939575 48 26 5
0.8997962115326292 -0.0733547394008627 0.5653165086548425 135 124 104
1.4214819728841623 -0.0700448418498279 -0.0115939324069221 6 69 122
1.2141636209670308 -0.2898166648038252 0.2103146676527785 174 152 128
0.8304754637616047 -0.2835735406361946 0.7553274669388064 133 124 107
0.8881373245492276 0.0005531965150118 0.4497535857816558 117 90 61
0.7932164115543968 0.0000853784761130 0.3923275430473489 219 201 187
0.9951455725941537 -0.1886803349852997 0.4248664495738037 129 70 40
1.1272829238357021 -0.8445149375305342 0.2387887260034079 113 100 84
1.4488525820308988 -0.0481569404806332 0.2604881260577784 45 29 14
0.9579504827101274 -0.0485507511183337 -0.0705210343419019 175 152 138
1.9254597003358531 -0.2490455653077378 0.3611430351574467 97 73 47
1.4108764311929805 -0.0221976025952638 0.3353139760867637 30 25 19
0.6512749169326348 0.0080397102960762 0.5340217137048368 66 56 46
1.3245969158995154 0.0280241760020838 0.7967009004770931 95 75 51
1.6359141254775600 0.0201890009724639 0.2205922650038926 108 95 78
0.6893498733038683 -0.0167896024602704 0.3514865571040929 56 43 34
0.9030283390520877 -0.2855967072098081 0.5982176547428579 160 150 148
0.7666446621366826 -0.4011903005863766 0.1500718652805582 188 166 152
1.2219370173371324 -0.1130224854221932 0.4429981175370754 196 170 145
0.8608186352323002 -0.0644363095110703 0.5532114017760720 101 89 67
0.8597139071239119 0.0098136893293750 0.4624976501964616 98 85 69
1.6833094769155668 -0.2694258625716778 0.5268806483904435 166 139 120
0.9153704728850909 -0.0828968411754451 0.1848290887252883 97 93 84
0.9331915225532895 -0.1235418295832469 0.4583086166570348 188 173 144
1.7763389368288727 0.0191903455264419 0.0744084361052376 66 58 45
1.1233628408320855 -0.1027421252677830 0.4483171597569282 134 124 89
0.8531667446957686 -0.0401846218334531 0.4562078149307652 52 14 5
1.7137154860529062 0.0216072212027352 0.4143024953570429 120 108 92
0.9703902127223121 -0.2702168527271533 0.6307472594116442 146 135 129
1.4625736692205320 0.0101782481666950 0.6593303147528859 143 62 15
1.8552999967219457 -0.0049528854634500 0.1168341334375440 201 193 182
0.9739982718632143 -0.2843790314515671 0.5970559470157133 110 101 84
1.1000247135326822 -0.2278714809043138 0.6396035710524015 142 144 141
0.7667458204510491 -0.2961745546300046 0.0628878108219578 163 146 128
0.9059084726368083 -0.0466293815103901 0.4497840776391210 36 26 24
1.0852819032755952 -0.1132606109230905 0.2796716755853881 141 170 184
1.3409120768337144 0.0281717591006939 0.6923745368128551 92 76 61
1.0461772695388065 0.0120974806419880 0.5193738979049441 77 59 45
1.8130278074286714 -0.0611645455631843 0.6629577700828506 64 54 44
0.6766665942924686 -0.2899066237431285 0.3957038288338298 68 66 53
0.7366756978272833 0.0056000760310245 0.4787387003958543 92 78 65
1.7456193148990742 -0.2345655315608439 0.8745297402929940 148 130 108
1.0082156155078661 -0.3025699854947266 0.3182833758495586 121 105 90
1.1559463624677919 -0.0865892498963492 0.6274576522832099 141 135 123
1.2693397135522650 -0.0796115474797489 0.2432307053988447 209 182 152
0.7888033074354871 -0.0505463513990643 0.7088888055863484 3 0 0
1.0737739688464421 0.0167775321573836 0.1549753950558044 66 56 46
1.7597724672219455 -0.0829342349468336 0.7113597201280930 175 152 138
1.2830075373019281 0.0079543156745891 0.3326979801489027 26 17 10
1.0119367743975354 0.0033593319580362 0.1042689228238490 94 87 71
1.9710235330493724 -0.5609503327511735 0.1646885114819384 255 255 255
0.9986144940245787 -0.1195674339499058 0.4636611266706633 220 191 185
1.0387616175729217 -0.2184591773515162 0.4378697194434016 207 203 192
1.8110326046355534 -0.1042373994826031 0.3492063896710648 234 207 186
0.9563356725069949 -0.5112422452618435 -0.1132854529068074 175 159 144
0.9316020186101566 -0.0461713477917335 0.4613080731029716 169 143 120
1.6929213052624903 -0.2723277192189022 0.3399933208104867 106 93 76
0.9259238104200529 0.0043160035320079 0.1696303207125013 32 29 20
1.0545405072359040 0.0127013963892097 0.4821400807270542 61 49 35
1.4211685110216838 0.0222070366462980 0.3708987175138477 92 73 56
1.5946515569705704 -0.0495526627753730 0.5580662044302703 32 27 21
1.2004150078303104 -0.2826070057036396 0.5706391112128358 80 76 65
1.4585746089863769 -0.2680942133088597 0.3934158488725996 162 145 127
0.7619708475513354 -0.2799750022262907 0.6390963734649293 153 147 133
0.7253159054649349 -0.3076290956644890 0.2192890405663046 150 131 114
0.8919583356690205 -0.0546084232724839 0.4377429327104603 28 9 2
1.4373946687063761 -0.2767223684107689 0.4907924379150236 154 144 143
1.4230447867125875 -0.2795430443423872 0.2568919792230068 172 154 134
0.8921696682021921 -0.2863589579010397 0.6042347958316255 162 147 144
1.3213557243854839 -0.0092545866992986 -0.0254305737352504 67 50 40
0.9381427519943140 -0.1280533010171997 0.4575232706236134 84 82 83
0.8841600738827596 -0.1429304344118015 0.4485964003862217 102 89 72
1.4489175223751529 -0.0690258705289602 0.4954117824901484 234 210 112
1.0302866371156696 -0.1612519857709142 0.4790305200822657 121 99 85
0.8763464351957043 -0.2847367267603150 0.6200233426484231 158 146 146
1.0723505623003526 -0.2890400125306622 0.3272040604684715 127 117 105
1.4586513991014645 -0.2869599667252685 0.2814965847920479 255 255 255
1.7221193669365344 -0.1035193291433171 0.7162775071400962 33 25 22
1.3806255606906082 -0.0754912684650699 0.7657811193973458 205 178 148
1.4586011322567496 -0.2928221421286938 0.2854539565062129 176 156 147
0.7140530367770025 -0.0098271722522439 0.4422889299202501 83 67 52
0.9838926902896701 -0.2009933112270858 0.4282341834492085 227 69 34
1.0920593464991715 -0.1149919486895123 0.4869993273387394 223 205 183
0.8831931078878574 -0.0169843007269694 0.4445005938557635 38 27 23
1.4866628008201144 -0.0627035918187038 0.4301504835850304 247 211 187
0.7048007424834843 -0.0833034723978625 0.1957520292782871 152 108 59
0.6683517936118964 0.0049993401784574 0.3777310629373877 59 50 35
0.8962490163647676 -0.1698699916974175 0.4517350098841690 47 30 2
1.5354328161456958 -0.0589007039829774 0.1028431413178065 27 17 16
1.6636201769661900 0.0253957305343221 0.6339847486169192 85 72 64
0.9370496556380743 -0.1548945613293865 0.4535072366502039 64 55 40
1.3151421164637644 -0.2873504644605229 0.1848795431985863 120 103 85
0.8270979377969184 -0.1123422591247730 0.3813406614739370 150 139 121
0.9989424934711241 -0.3051995273505156 0.4324950359532049 172 154 130
1.1299189944122083 -0.2459383950887058 0.7855530309654866 29 19 17
0.6769055641200602 0.0053430425375568 0.4262322756640954 85 72 55
1.0525541991886007 0.0163636234689245 0.5436344679113951 12 2 0
1.1468366655793678 -0.3871528241784495 0.2427084202545604 170 153 146
0.2692757234114840 -1.8140972501204067 1.2390814574539610 131 115 99
1.5551063071326534 1.5134028597344964 -0.2927689578385245 71 58 41
0.7738790051150423 -0.2992579613303606 0.4053030126508310 10 14 25
1.1122190684834934 -0.2914769431288849 0.1228632301227979 254 255 255
1.3688625790590738 -0.2808896749689530 0.3130232869415412 159 138 119
0.8509117208030598 -0.1181590221990813 0.4479494441673192 112 97 74
0.9472885764878384 -0.1660952020796668 0.4595107535767601 41 30 12
1.2363075177663243 -0.2813797900684932 0.7957776045172257 182 167 148
0.7514250418690673 -0.0904649863683401 0.6979820100931199 163 178 149
0.9299861218000981 0.1029999692996136 0.4429153279897458 83 71 59
1.0315021391020454 -0.0150110894740164 0.6030425983312577 58 43 36
1.1738648106432830 -0.1845251021555198 0.7943150170948611 189 208 223
1.7372311109957266 0.0301558544852441 0.1324393825025294 52 40 26
1.0432830818249446 -0.0568602686693600 0.5581457922627449 26 16 15
1.1180156033388435 -0.0490925849504600 0.5858093576322525 77 69 58
1.1501035536738689 -0.0749434225437690 0.2569339632518068 215 197 173
0.7945826659812151 -0.2110281639022111 0.4049061443755485 140 138 123
0.8865106265182326 -0.0663011385698214 0.4460103470629714 120 136 27
1.4507817462066377 -0.0619324579565799 0.5174536633649428 81 52 38
1.2561991418000618 -0.0451933129354959 0.5439587586465969 154 95 81
0.8817924602834806 -0.1336418128791570 0.4541804990600311 213 189 165
1.1476733772313736 -0.1298272255394499 0.5100434282556111 166 159 133
0.9786059289677422 0.0228970115177423 0.4684353483913587 64 51 35
1.5742581482866882 -0.0697381081488574 0.2819958404304664 182 157 127
1.1439559530681824 -0.1318489707752446 0.5107323618578510 184 172 148
0.8868450399047862 -0.1211591960583942 0.4488693499018261 214 187 160
1.8394384021281260 -0.0805064271647893 0.3465627334672075 251 222 180
1.3350302977470780 0.0244047822385194 0.6815786014403373 84 68 52
1.4083784845945615 0.0095719636859097 0.5022179461301739 34 23 21
0.6829258977885111 -0.2782200503536206 0.5318163008058091 255 255 247
1.8858551525491869 -0.1527526941347977 0.4099120159851506 208 163 122
1.1487091271664720 -0.2855490711229465 0.5582187425069193 169 153 140
0.7109506050031188 -0.0246762200327097 0.1696314023282576 68 56 42
1.4876241388165989 -0.2740495021313966 0.6557177371324685 106 102 101
1.1027019217277292 0.0084359435217332 0.0952741727201599 94 81 65
1.9551376475302140 -0.1763883991551460 0.2123923967631865 138 110 86
1.7745546016198714 -0.0838797090323733 0.7056991938095358 29 22 16
1.0895954968437989 -0.1297788242743428 0.4926368872045686 162 148 135
1.1163281199276345 -0.0814971204618844 0.1673201098697231 28 156 247
1.8282901870248067 -0.0918543632288486 0.3863191556208100 254 203 0
1.4324213223480402 -0.0037042127262315 0.3696719043249121 23 29 19
0.9333688862167137 -0.0931072087985096 0.4497027559184344 121 71 22
1.0585058812108552 -0.0608066731470079 0.5312230032375037 91 72 65
-0.4711803602194677 -0.3945468306104589 1.2047912671048586 176 173 156
1.2220563539536380 -0.2931107298918482 0.5621515138890204 159 145 134
1.7706922399607359 -0.0855327491280201 0.5326028187439217 167 145 132
0.6759017889960621 -0.0164706221956755 0.7165196869407947 30 20 10
1.8588222453001639 -0.1153953446831333 0.1735679036995674 135 157 194
1.1187971280304538 -0.2942130753264788 0.2601042240832680 252 244 242
0.9261873368312000 -0.0794037545321313 0.2548244263280738 41 31 22
1.0440297265319674 0.0141021214880110 0.5239109309329829 69 55 44
1.0229073442397743 -0.0294775819876424 0.4464317703734327 124 113 91
0.7870976386331758 -0.0583070976470083 0.7050692203475549 153 134 127
1.0744020932542453 0.0090933262437502 0.2693927871525780 83 71 59
1.7608847950524746 -0.0475213666588083 0.4022268232159179 198 172 145
0.8694857281477847 0.0106176844609407 0.4485009376378026 234 207 177
1.1608771982845252 -0.1218690469386030 0.7356345246401866 120 203 253
0.8713098523239375 -0.2919835722596714 0.5961141637345234 81 68 59
0.6899710358368202 -0.2851596383011463 0.3351195517344249 114 101 85
1.0775452129872383 -0.1232760367220342 0.4833116892187065 84 71 62
1.2457622311411456 -0.1113025810790623 0.2318267469868922 240 194 119
0.9010077157933704 -0.2920237805621447 0.3466237187884055 168 155 147
1.1101763816820396 0.5024159374892373 0.1680390114844249 51 41 29
0.8998841865358294 -0.0719639812707346 0.5402437023406478 249 220 204
0.8052246664244288 -0.1163245732617013 0.3321221808364948 131 116 111
1.4540677456826465 -0.0623992101824955 0.5281805571412473 63 45 31
1.0650836388906961 -0.0787547757203978 0.1909405272777069 29 20 13
1.0826445019882092 -0.0099782434104555 0.5210868752678052 121 104 88
1.0396694982778276 0.0129754887207058 0.3510963159843918 84 70 57
1.5201475574431551 -0.0834828237396746 0.4958752578046248 170 129 97
1.0775860512285469 -0.2925030138462025 0.0633112848902958 77 61 36
0.9433784498789900 -0.0561456177816168 0.4530077698416610 25 15 14
0.9329367072154040 -0.1947541230958058 0.4291067377359283 234 220 211
0.7399706873706329 -0.2664819612950212 0.2529113682373249 123 109 96
1.8101085511884989 0.0191783752253688 0.2495909999734721 96 81 62
1.7083638336365736 0.0130492284884085 0.5716923955657656 78 70 59
0.9015268767328858 -0.0785273070500993 0.4494510052439994 221 194 167
1.7894256546829870 0.0214612110048531 0.2750169841453167 87 74 57
1.1132246690678504 -0.2945376397557183 -0.0163049536508276 145 128 108
1.2115330828751809 -0.1209238864196833 0.2159940833267846 59 45 32
1.4507329380259204 -0.0626762178835449 0.5733308315073236 242 198 169
1.8173594838275422 -0.2636080442638804 0.6481756005216294 138 121 111
1.0012807165276694 -0.2159663505658682 0.6945788332049450 239 208 187
0.9234477272517001 -0.1539643846220680 0.4564916400752449 108 26 38
0.8050975794182085 -0.1341466737550065 0.3151810232468750 78 80 66
1.0184884273340613 -0.0812974304251263 0.4541702344445627 56 22 10
1.1982802392170424 -0.0129658203812124 0.0645506360127191 148 128 101
0.9955561546829613 -0.1314179861028810 0.6892861220569431 230 202 180
1.4107578688835694 -0.0458264500712091 0.6164281382348761 22 9 1
1.6383408749426496 -0.2778881906431783 0.5178332137440446 174 148 131
1.0709074519986921 0.0023614038887316 0.1715450524506943 19 9 8
1.9462793997312096 -0.2138091820576184 0.3836481129163772 129 95 68
0.7273588597809336 -0.2910752313594029 0.3971097428859856 38 33 30
1.5916627880779370 -0.1034710986014660 0.6560130477474111 40 36 37
0.8320862747256179 0.0065425542787655 0.2318752370461405 58 46 34
1.4264312595772104 -0.0445261145732527 -0.0015569491923352 170 152 116
1.0482071140092271 -0.1170679301343716 0.4638690741049788 90 77 61
0.7419518869266590 -0.2840560948128871 0.4336664806965677 248 243 240
1.2739876083452883 -0.2797028775729304 0.3021378262966370 169 151 141
1.8481272253290435 -0.0880115067386367 0.4440074460887212 163 84 17
0.9318232139205602 0.0094318494104444 0.1488939686367815 25 15 13
0.9836516940159420 -0.1998654806938304 0.4253703725414711 234 84 33
1.0879454957672581 0.0051355617825441 0.1629316396265242 44 57 39
1.3100736957724304 -0.2190607273396503 0.8238823885294242 60 61 63
1.9376301639522480 -0.1735215544463712 0.3634058678424988 145 116 82
0.6867747169092941 -0.2944313275333091 0.4520867818168784 98 88 78
1.5771943459678426 0.0192316892071160 0.2288583802992666 78 64 51
1.0867240348385365 -0.0825638521961821 0.2860795480641717 46 39 31
0.7086360096260097 -0.1194743370232325 0.2238746085172608 157 113 64
1.4505374201624492 -0.2768506908260364 0.4812570870835886 176 148 126
1.2846594003308385 -0.0813303884433095 0.8081496728727314 126 130 139
1.3863299049541631 0.0192242027630990 0.4723122857147214 113 88 68
1.0224670615257463 -0.0426920499666455 0.4433843489109401 149 132 106
1.7613919197997856 -0.2734265648007135 0.4426729545777693 164 136 112
1.2842221486819334 -0.0842121521207303 0.5044860015394587 85 68 52
1.8347092330675192 -0.2702738685648030 0.1508852691968904 141 129 117
0.9781470965007300 -0.2922377109395147 -0.0541705328727375 254 254 254
0.8259682945840279 -0.2923890517065015 0.4017643225944261 137 119 105
1.6319961831317946 0.0192970470051879 0.2651077833121050 133 104 74
0.7936706645439532 -0.0301080751590325 0.6587621740829299 223 211 215
1.1313168603041603 -0.0804074014842366 0.5486693906219782 99 95 96
1.6850402227654189 0.0267682016076408 0.6749142693307578 61 52 43
1.1315878858729176 -0.0557696638197507 0.5110472866415863 90 73 47
1.3256479291406491 -0.0277566128722914 0.1781231082831235 108 94 85
1.0718101902013120 -0.2447384037758819 0.4649024654232461 112 114 101
1.5949581859892787 0.0186256560636172 0.2123667187674498 85 71 58
1.1548576177084635 -0.1359775192944454 0.4096448152019423 59 49 39
1.6837434772522488 -0.0784119531925344 0.1307906748766624 48 35 27
1.1163888080632640 -0.0891176730551705 0.1723720626926071 226 203 195
1.3080490749545748 -0.1635549573055615 0.8344924905984989 173 237 249
0.7875613430082538 -0.0029554081816507 0.3958180599846652 35 22 13
2.0354996131499870 -0.1551133075612616 0.2717217809365950 128 126 113
1.0582370392326506 -0.0382477703817408 0.1921811120091352 121 148 115
0.6963792267134499 0.0060321791246398 0.3852474904039179 222 209 200
1.2133487485890317 0.0103208945715261 -0.0188373277967203 85 68 60
1.1623866098353790 -0.3441028226334671 0.7837392586656706 255 254 249
0.9423458790989718 -0.2866838393915212 0.4227031508674843 43 38 32
1.6288981051050446 -0.0622281928589272 0.1308051975681898 206 177 143
0.9478149876091188 -0.1943848869636545 0.4227684171336635 204 202 187
0.7756002433119669 -0.2985873288173991 0.2023124871581898 207 186 183
1.6826039869842830 -0.3565769356796241 0.0846691404652158 160 142 128
0.6799107258069951 -0.2924817439465861 0.3975059524022425 17 15 2
0.6643387613280886 -0.0071268746091646 0.3787582851344339 150 136 125
1.6419765269490623 0.0164185499514782 0.2631623316581061 109 92 74
1.5912026479846828 -0.0576323223727712 0.4712539972354671 179 91 81
0.6718623133185118 -0.2397414620780167 0.5116933218248298 154 156 145
1.4500166386803939 -0.6304253298195114 0.1326556941962894 215 210 206
0.7957086927734462 0.0076066359598737 0.3654045028214061 74 66 55
1.1430876302058366 -0.0765164618999085 0.1654145511846342 244 205 174
1.6723139190993912 -0.0621914811267930 0.1123791146283217 85 69 56
0.7139636578370401 -0.0343326417739994 0.0757139066197276 137 122 103
1.3060586078406098 -0.2758523147970727 0.8050957285401160 157 135 111
1.9221767856957532 -0.1696842495365917 0.3758876759812422 138 111 84
0.9172696603009540 -0.0039821336571992 0.3105270190132827 49 39 30
1.4072505512834741 -0.0649486552731701 0.6445273587484307 221 190 161
1.0273162935047033 -0.0388476706691050 0.4494933752516485 79 65 54
1.1438680765447489 -0.2818833657991985 0.4499214186870127 41 41 33
1.1580302676460756 0.0070624502667101 0.0128490007242912 66 58 47
1.4575063039524094 -0.2782082597851506 0.4945423236978350 186 151 123
0.9090615404956249 -0.2046185593181142 0.4246066802038566 47 82 140
0.7246873192443553 -0.2992513104284182 0.4280932353875827 248 244 241
1.5550470204087459 -0.0730291170442221 0.1356790670424176 239 224 169
0.8276007206875556 -0.1212478847346476 0.2658284145573040 159 98 43
1.2666547313215695 -0.2755649208149746 0.5760853074977741 176 150 127
1.6939510093822157 0.0252889276736834 0.5793510387653259 99 89 80
0.7767439121217409 -0.2934329333991736 0.3951803117822735 129 117 105
0.8118377122871865 0.0031959505330105 0.3897991357492300 141 125 102
1.2536397047373331 -0.2838044057380100 0.2911779686147726 98 85 68
1.2220735133344365 -0.0724784172767325 0.4224890725212640 38 21 13
0.9318434304803634 -0.1981572339081030 0.4670076329836788 5 37 88
1.0913917831065347 2.8404197018460744 0.4218845959293295 110 97 88
1.0849095468281360 -0.0746596022455557 0.1794823847478616 111 97 86
1.7484610073953351 -0.0628015452303369 0.5331859699604106 157 136 107
0.9158553384740348 -0.0485113522430676 0.4599369815393756 114 101 92
0.9259062620456519 0.7525832542017487 0.5487291809483682 23 7 10
0.8846457178403100 -0.2949263892974660 0.4903170043768823 135 131 120
1.1315863439702565 -0.2944451442769593 0.3836497857894340 170 153 135
0.9356859258967448 -0.2977796543633600 0.4184208616088649 162 152 143
0.9164710945753928 -0.1952148204726395 0.4690728983523533 28 20 17
0.7191600726744264 -0.0582044048076172 0.2533935886479469 163 38 8
0.5405583355135252 -0.2570118185549967 0.2015117568111108 100 115 96
0.9690877819132313 -0.2952650067648075 0.0635046336488621 255 255 255
0.7821658505963032 -0.0760131430527071 0.7608249995812095 203 177 162
1.0902629185838613 -0.0520009879571075 0.5174171935240486 163 141 118
0.6902853016630223 -0.0971255599248499 0.2492690908566271 202 175 154
1.4787625380030618 -0.1095987251160308 0.8828673335056123 182 226 239
1.5498678499523340 -0.1144901613830938 0.2632230361124515 95 85 75
0.7718244804403549 0.0133050789583024 0.4926979600543266 113 97 82
1.3820506955907619 -0.0114998300543775 0.5351918700008226 88 70 48
0.9332678914304194 0.0675398716971280 0.5533282089099842 70 56 45
0.6423463562857054 -0.0059879564382160 0.4968471966196985 183 166 148
0.9350285354192193 0.0051500202356001 0.1338712971915955 53 41 29
1.5534436817618369 -0.2751441862680659 0.8211780935892307 254 254 252
1.8284154799159928 -0.0812149974389959 0.3428943522296322 219 180 137
0.7071557887844877 0.0034082438242744 0.3560124645439436 94 85 68
2.0044306457525840 -0.1557558695133678 0.3819208038915514 120 100 75
0.6642226590280494 -0.0003545856387339 0.4037196403731904 30 31 23
1.0546393658543429 -0.0924122774196603 0.4848124563259226 99 133 134
0.8701683851837463 -0.0697336653784606 0.4487353571694416 44 135 8
0.8302237576884043 0.0070047185449528 0.4998903411684816 110 94 79
1.1832959628077246 -0.0717747606254839 0.0396942721701130 125 108 100
0.9218033357592524 -0.2891896859881884 0.3565739780700615 255 254 250
0.8268976166479133 0.0046967672545533 0.0971696308087258 85 69 54
0.7221968665008072 -0.2910695055921486 0.3390828445010418 146 130 115
1.5358537774978445 -0.0849903786164833 0.0504812421893240 24 26 39
1.7903033826089418 0.6380250513520095 -0.0463877129606109 64 51 34
1.0793442424234350 -0.2842781660692476 0.5919638623049278 253 253 253
1.8302326641944191 -0.0899095634934529 0.3395977488702968 145 111 76
0.7266308798667015 0.0028928321455282 0.4836334825818883 78 65 48
0.6961652488072924 -0.1427824627476485 0.4888957452816218 177 181 164
1.5470341247542396 -0.2862928260625404 0.2675736276500507 163 142 123
1.6540041211273557 0.0270237278414167 0.6850345630921468 65 56 51
0.6896116854408311 0.0036398472405242 0.3095408819296034 88 76 64
1.2814620627140925 -0.0004854174287701 0.2325112459979131 150 134 118
1.5610445849191183 -0.0585772707605741 0.4896962013324938 59 38 9
1.2141312961847972 -0.0667161226038331 0.6873325680221534 88 78 69
0.8212237456453740 -0.0889196037385894 0.3114643407979846 151 128 110
1.2171898315946243 -0.2832526254768749 0.1718069435446223 173 152 125
0.8604827382016176 -0.0600888863568097 0.5543341546711084 93 81 67
0.7542295632196524 -0.0689191944602366 0.0601611480882906 132 117 110
1.6265008797977958 0.0214991050291310 0.3446135043315312 62 51 45
1.1773114427014686 -0.3766793221570147 0.1384742714462737 251 251 251
1.1467050758112172 -0.2768667494301805 0.5694702464158354 154 139 116
1.0255166592740306 0.0115852017241392 0.5419086531568014 93 77 64
1.6022167484374015 -0.2749325904025767 0.6577894562669545 147 139 136
1.6400503565854971 -0.2864716211034715 0.0181196682564484 255 255 255
1.3044879410590355 0.0277932757841260 -0.0120140493564423 55 48 42
0.8696588035509295 -0.1815179660657484 0.5129542748389705 174 181 173
1.5889626490292650 -0.0745666048883613 0.6336757881829640 50 40 31
0.9137917837391935 -0.1059355329282958 0.2437401376470930 30 20 18
1.0169761724687383 -0.1158912093524793 0.4783864812790772 213 193 169
1.1632320032412449 -0.2541103601805272 0.4535446571622641 182 180 165
1.4439086470653526 -0.2798456541076658 0.2332742918907496 211 206 202
1.6905007399580980 -0.0632378431348486 0.6367261192990342 38 34 25
0.8178414122285080 -0.0217670974325733 0.3971004658272236 28 24 12
1.8929169890984356 -0.2584008373792389 0.4568378936768235 172 155 135
1.2780544916632484 0.0119784477734766 0.3612082450391015 98 82 66
1.8921880806243756 -0.2583100007231464 0.4567302054411351 172 155 135
1.7871939888821997 -0.2702843611280378 0.2657005891772364 222 188 176
0.8122757767094263 -0.1265409715546617 0.3744119457052297 35 32 25
0.7227276966392160 -0.0873560548000441 0.0804750048421737 165 148 132
2.0852646159951673 -0.1546263147207808 0.2530762953416033 114 106 85
1.8488850442537870 -0.2644768295489773 0.5265863616709757 141 115 88
1.0461655536627077 -0.0547563354903504 0.5333846839953699 26 16 14
1.3835839880961740 -0.0764783413053275 0.7496770552405231 34 27 21
1.6315671599616983 -0.0868914399877829 0.2590713330941856 57 44 35
1.0422844023021467 -0.2075596660197633 0.4323853576379645 201 45 23
1.1566095924859896 0.0071364765348053 0.1182805997898878 76 62 49
1.1761278139954991 -0.1270061661153422 0.4648685304049489 192 160 121
1.0382898816153858 -0.3248528016150829 0.4829360975889402 156 149 131
1.6245129445313313 -0.0174551659151909 0.4651865470159100 162 138 112
0.9279065389967118 -0.0881671373787929 0.1341490491147998 211 200 168
1.4440376210487729 -0.2773044200952479 0.4875171301471276 90 80 68
1.5836415126436383 -0.0132395581234835 0.5516429880917362 39 30 21
1.2185136764447764 -0.0735646268620158 0.2696927455105205 213 187 160
1.1745279599409892 -0.2412606323853098 0.4671023802828521 140 146 134
1.5548620255293437 -0.0596282496467913 0.6195684542285852 38 25 9
0.6768760210451702 0.0120935804877557 0.2903017536086263 55 47 36
1.2971840812299167 0.0124386134073003 0.1381699843687447 127 108 91
0.8170963116815131 -0.1037450928738135 0.3131132876653858 41 37 25
1.7732306822500108 -0.1098777225966295 0.3294451558011514 9 77 158
1.5139963642083965 -0.2775533962619225 0.2543532220472663 155 134 115
1.5504098300956668 -0.1930465251496588 0.8612075560208040 200 240 248
0.9773673451698811 -0.2841735601091382 -0.0851397143557484 255 249 231
1.0058389062292095 -0.1133469774325807 0.4664088259386481 203 181 167
1.3857232321774942 0.0235049198637913 0.6710877882351853 71 55 39
0.8182386658856032 -0.1185702085363934 0.3291600278511965 140 123 107
1.0532788814094582 -0.2845002187355458 0.4458668579620122 161 148 129
1.7391358257117935 0.0192021948844726 0.3227413999019722 90 78 64
0.6996552159129080 -0.1536844873872550 0.4809267727044482 172 178 164
1.6222618672216784 0.0202312732241645 0.3418355000890799 58 65 49
1.2168653471030169 -0.0623095969005438 0.7193253725369401 234 203 182
1.7221389363173190 0.0200792184194308 0.7084885244813358 135 121 108
0.7654578046920500 -0.2999450998178448 0.1156374037963846 238 230 219
1.0214680828028559 -0.0900593090758939 0.4562867624536590 163 137 100
0.8014480910489110 -0.1113629881877161 0.3626013003579820 57 47 37
0.7980591127087967 -0.0051000668546983 0.4167687767774062 88 80 67
0.9639990969603949 -0.2980714051685683 0.4840945517169350 181 159 136
0.7467413526231297 0.0030194787107846 0.3685914438615224 81 71 59
0.7228170746033055 0.0012539649276174 0.4149653936179385 107 95 83
0.7882656260980052 -0.0924417353487959 0.4022853380106815 135 137 126
1.0646351930368920 -0.2902838938559489 0.4458696204156357 162 151 147
0.7462757193815301 -0.0989516258411390 0.0464708139429818 159 141 117
1.7556530090222540 -0.0673018507242098 0.5240239836022289 255 253 243
0.6444546899672072 -0.3051301024940999 0.4682119327170588 172 171 169
0.8131137555642231 -0.0019842319693668 0.3938176512076527 205 194 174
1.6277696767202170 0.0028450954326498 0.3542829949061427 77 64 48
0.6431950742897513 -0.3070203636059537 0.4703664084014987 172 171 169
1.6801899791864088 -0.2688411357335417 0.4687003725551351 170 153 135
0.7195004365010040 -0.1427925594086234 -0.0155736095987258 211 185 172
1.1571604167228260 -0.2837695953833458 0.5068400193534591 151 139 125
1.5756817239451462 0.0386067477235392 0.2180425837143268 83 70 54
0.7635718839133222 0.0086729784081900 0.3524052346000072 92 81 63
0.7849569720273241 -0.0036895956620832 0.3960870705269737 44 31 22
0.8185315947383757 -0.1103418877741347 0.3298695094756006 151 137 126
1.7068737487262127 2.2543423646764307 1.0038550032686218 78 65 49
1.5582635605359669 -0.0979142517944052 0.2918196067905647 49 30 16
0.7627893960515080 -0.0017134822490734 0.1013824283795703 95 82 63
0.9191018744842011 -0.2757008242781795 0.4211473145835692 183 179 167
0.7908785787935133 -0.2134436191767631 0.3871788470099459 153 147 133
1.0733321610638740 -0.1153230272511231 0.4975938005831779 51 33 19
0.8253877561670170 -0.0041533332959421 -0.0784071010386055 33 24 15
1.2544250427902857 -0.0051901910428931 0.7941771417838135 180 152 128
1.8589207354444950 0.0123814489839370 0.1181993811476770 43 33 24
0.8759285231919710 -0.2760754391350668 0.4210922938514983 122 123 109
0.7757038051733544 -0.1350709297708247 0.2778160315655783 33 29 18
1.6802998473381883 -0.2604740218161082 0.6053177869490406 172 156 143
1.4272708124302913 0.0071673072826063 0.1419466017339120 68 54 41
1.5931308348293505 -0.2796810159000166 0.3408607669402210 92 75 65
0.6935535026865900 0.0036206445540566 0.3405592527507313 68 58 46
1.7631398721355911 -0.0067168254390521 0.5216533464756427 146 20 5
0.7059812596800173 -0.1149100603808753 0.2143455103651717 157 115 65
1.7966594038925141 -0.2694601127413924 0.3548857193715584 86 69 43
0.9377388166363696 -0.2807060313444767 0.4624919935887316 160 159 141
1.7773668674956411 0.0025361784450974 0.3461690815825414 163 140 122
0.8154415147798023 -0.0049218069892967 -0.0585466410050685 82 66 53
1.6346236274743329 0.0191809505540887 0.3550855929494306 79 68 50
0.7302887946243800 -0.2846445711656307 0.2953919047480836 146 129 111
1.4037580385080413 0.0239458018543746 0.6956801396842972 48 34 25
1.8131745578053684 -0.0864330024946750 0.3551725601043805 214 188 165
0.7444571203967778 0.0095920184725148 0.3864824108060233 76 63 54
1.7773479690808516 0.0027479789112730 0.3463315480803272 162 138 114
0.9348013814820497 -0.4196779451879230 0.0087678556837887 252 250 251
1.0701639831862795 -0.2914315606225909 0.2735839877496479 165 148 128
0.7014089425403607 0.0041308060694739 0.3731087199362140 94 84 72
1.2958290971049218 -0.5495208897956463 0.7961806675150830 134 122 110
0.9212090476799077 -0.0254928812790608 0.5280054302781765 73 59 48
0.7916604252807633 0.0044046103062175 0.3463344292870685 68 60 49
1.8997855229334888 0.0038603915443546 0.3688468031412577 189 160 130
0.7110076627900549 -0.0143930137543278 0.5030473180784530 223 166 89
1.4725885279335160 -0.2667897225938933 0.2684107023131891 185 158 149
0.7144322609373067 -0.0573011818446339 0.2272236732135380 229 72 29
1.6613155891938023 0.0138132049559183 0.3023103848630115 72 59 43
1.0623996480240545 0.0172462509650691 0.4870487813485992 50 34 11
1.7306311103651586 0.0221303310101041 0.2785332992781188 93 82 64
0.7356877250473328 0.0050631926559311 0.3698608541985197 81 69 57
1.6708692154063611 0.0079135123998104 0.7150593047835910 118 113 110
0.8894739259041592 -0.1735464393911899 0.3016613277126552 154 136 126
1.3174181164984131 0.0247344683127172 0.7255994644493120 90 73 55
1.7765632905546604 0.0230765968023647 0.3378084665531413 107 94 77
0.9395230871057352 -0.1278329613393794 0.4614525569371802 51 42 33
0.9122523551934526 0.1263629022150634 0.0083288251102741 96 80 65
0.6837314703415445 -0.0372101311280863 0.4675893072378443 114 108 94
1.7722137629580186 -0.0356343357717754 0.0913697829210704 61 52 35
0.9381552884572376 -0.2101587667646744 0.4208473318842828 180 138 124
1.7003476463725002 -0.2727389720405349 0.4072334435238930 167 149 135
0.7381537366259063 -0.5368556645333687 0.8639256887248770 255 255 255
0.9081865086588475 -0.2399660225924197 0.4936037860142204 40 44 45
1.5843648183630452 -0.1017063526362228 0.5099270413104704 45 35 43
1.4860323769355266 -0.1586894769812602 0.8389406277253806 192 213 230
0.7084347002890932 -0.0249097905810150 0.0926385779315217 206 160 108
1.6016681835512732 -0.0652549036778532 0.1530823133803698 253 223 195
0.7722335869576717 0.0044758314629736 0.3260045106396777 48 38 28
0.6930685963188752 -0.0703020625496316 0.2422282863175385 215 165 96
1.2296601177181410 -0.2934280345563665 0.1035407956231258 188 164 140
0.8227780698145847 -0.1194605047679788 0.3151013142973819 160 140 129
1.2349152785519071 -0.2850329173082779 0.2952756682092267 173 156 138
1.6857092661406705 0.0210538102418298 0.3261924165461885 89 73 58
0.7553598489618145 -0.2965220157716060 0.4275507143197624 254 254 254
0.8234338303571069 -0.0502289523366287 0.2707588737153852 133 115 95
0.9570965754855889 -0.0385127333443496 0.1724999922742383 21 11 9
0.7336757516071143 0.0112083128065529 0.3198990541409253 84 72 60
1.7563696222626644 -0.0377533285676250 0.1055787238930263 53 41 27
1.0665793556004524 0.0189076464466421 0.4944146700638909 147 108 65
2.0208307488950408 0.0280612651805495 0.3311612200154442 79 66 50
1.3859920029850146 -0.2751285510507038 0.6487984876013269 141 124 114
1.2119341730535296 -0.2764668717425506 0.6221841484150905 161 161 151
1.0836335049026231 -0.0549799467960541 0.1732745529482574 85 69 56
0.6747911803326545 -0.1466959699322992 0.3445918852357023 185 168 152
1.6867637922029843 0.0255123898073242 0.4462325824955179 126 112 99
1.1658907997302701 -0.2787229983003460 0.6237438297770886 101 84 66
1.6881708856646092 0.0306934062913109 0.6073386807059239 105 95 85
0.8181173517368736 -0.0309042213824766 0.3864462477262507 119 106 97
0.7725049294333552 -0.3058500744881391 0.2052974176355636 250 246 245
1.4564681147021787 -0.2955383251258504 0.1416847110456507 255 254 250
1.8684156961095417 0.0116696333936700 0.1163302116285150 11 7 6
1.3343023802361875 0.0241579277430686 0.7189085200551482 74 57 37
1.5447530063617891 0.0160996325515813 0.2456783731238662 86 73 57
0.9229116196688771 -0.0873927453106377 0.4559924023046398 249 166 62
1.2981554527747534 -0.2888380566693670 0.1502236685425861 169 148 127
1.4174709561764278 -0.0790409254556722 0.6355487211174110 47 41 45
1.3317046475905896 0.0315657792287977 0.7231967749211476 91 76 57
0.7638496989094098 -0.2990643784501165 0.2063996500206229 255 255 255
1.7428905325135984 -0.0360017946679426 0.1121412297932003 88 75 59
0.8661516111800545 -0.1772542417958307 0.4234764996897530 170 183 155
1.3966168677547721 -0.2739471357414742 0.1440886391664998 163 141 120
1.6085776677681569 -0.0640103924261693 0.5398743323281776 113 115 104
1.4309061195163681 -0.0578993182095444 0.6989233668950454 83 76 70
0.9178244462677952 -0.2982711628954478 0.2536727614344689 120 102 78
0.8600476603785954 -0.1041170728037337 0.4400174950681640 114 103 85
1.8114089336896273 0.0609131938890506 0.6721149987482604 52 46 34
1.8418288753631982 -0.0703774820093985 0.3485882589769663 135 116 101
0.8302979409282986 0.0043675963345909 0.2176150705812409 63 49 36
1.7669827476179769 -0.0340077165552099 0.1017208154851231 86 73 64
1.3389414131365844 0.0251570123096771 0.7454401240019556 79 61 37
1.2297749793107815 -0.1134719525539285 0.2182043646472200 184 158 121
0.7981211374216202 -0.2408693316141614 0.4861264865395837 96 86 74
1.4178915830920618 0.0237071471188366 0.6992834195099965 32 19 11
0.8850937457440013 -0.0871469627363013 0.4541378106865804 43 30 14
0.6734061116430399 -0.1475975155290512 0.3552085827261782 89 80 65
0.9960188326683060 0.0228396788600627 0.6038090689828717 84 69 62
0.9895287767162060 -0.1764127203724657 0.4924318966251623 159 169 145
0.8283641601609784 0.0126329828898231 0.5354948756686018 91 82 67
0.8866980830607664 -0.0813316452901845 0.1762982196044639 104 88 72
0.7262796478594021 -0.3025195576322223 0.1856309410015160 168 150 128
1.2334344137467812 -0.2763885750368540 0.6527633054938232 236 214 201
0.9002740714735018 -0.2872237824014627 0.2412144710371034 165 145 121
0.6735069984538283 -0.1002291254383314 0.4425219550243783 108 129 114
1.7968618691316729 -0.3458970068556453 0.2535260940419812 255 255 255
1.3746648329246520 0.0251287245134021 0.6969299064213343 101 80 59
0.7248899408959610 -0.0113610193513327 -0.1106306921224702 31 17 6
1.0321339349163454 0.0148465575089918 0.6090810935932219 43 28 23
1.0836937845079904 -0.0749607016158088 0.5515491719851406 193 180 172
0.8170271826072638 -0.1121241363480310 0.2640583454905022 17 13 4
1.7701925734592110 -0.0573659707104662 0.0701678364958561 16 8 6
1.5569948873466009 -0.0100787428198155 0.4783376723876464 116 96 71
0.6792306948910556 0.0026661126174722 0.3863188552427105 214 196 174
0.6881316482582531 -0.0242146615066667 0.6546779689801777 136 100 64
0.7899422455252417 -0.0267113853127315 0.4007973732130215 92 84 71
1.5999012177376297 -0.0416008015251707 0.7221350430793944 56 68 94
0.7175486671160926 -0.0154626954066087 0.0850343098679680 149 112 85
1.6975067589590760 0.0221564684553411 0.3124568028195698 93 77 64
0.7955491776577115 -0.2438425987630925 0.4247055926317498 152 149 132
0.7396404124255138 -0.2928687839604842 0.4548307306771951 255 255 255
1.7824580002956998 -0.0593600728996342 0.6197473883416226 187 155 134
0.8176462423299619 -0.2978387117555615 0.0673384524639886 165 143 120
0.7092874641215426 0.0117667194750427 0.2893464004495460 85 76 61
1.0571197720240315 -0.0363310990288219 0.4798882787589474 108 80 43
1.7360003746534600 0.0149427811627234 0.1633021188596568 32 22 13
0.7219776509356013 -0.2996606410571585 0.0547621646920815 143 128 109
1.0443746111919638 -0.0679645412504452 0.5940912114784269 25 10 3
1.4263905301908573 -0.0414685276142955 0.4943511480508943 156 136 112
1.0063944867043026 -0.2866460967370427 0.2657078642967675 162 145 127
0.7069256279079290 -0.0345408827307590 0.6776360594332116 155 107 43
1.4328840644154819 -0.0546069392143299 -0.0014003308902563 155 172 128
0.8603250826591098 -0.1291751636202315 0.2929481396965415 204 188 172
1.8386408378858901 -0.2734489634781334 0.4916430536417670 171 147 123
1.7923400081373193 -0.0667771849477390 0.5547175351919864 52 25 16
1.0982368691202611 -0.2860663966250346 0.3316701421648319 237 216 197
0.8163965999003634 -0.1046392957098443 0.3952906552896787 34 31 24
0.9593882553104033 -0.3688386018430541 0.6613953523986663 161 145 130
0.8709218019867045 -0.1142340438624938 0.0973633720503155 205 181 155
1.2294615920395875 -0.2981983451401394 0.5535612594146837 105 98 80
1.4185136224637935 -0.1045331922663131 0.7131546550838690 87 77 67
0.7436278366157575 -0.2992712075726411 0.2182964930472944 31 21 19
1.0576353612142453 -0.3085968138598492 -0.0328844626653370 157 141 125
0.9142789341891424 -0.0025732610279855 0.2616971062430393 181 159 136
0.8135015235370093 -0.0689883153292203 0.3252687450484978 28 20 17
1.0552610445440689 -0.0678421790704161 0.6182373639485380 35 28 20
1.5417210075919758 -0.2722576298657319 0.6751122583537297 171 155 142
0.9497180154623208 -0.3018521356025338 -0.0824173779338492 191 173 153
1.2015321968920500 -0.0740663927906917 0.4472183369205688 69 57 45
0.6776963107598354 0.0029095734160076 0.3561536812349499 61 53 42
0.9141397688127517 2.7140501279026412 -1.0129253440497508 59 52 34
0.7348021521532488 0.0042846567485388 0.3513715464350363 55 45 33
1.8633874797714094 -0.0748617560411756 0.1943532296310887 189 163 138
1.6326102162136531 -0.2740133164996457 0.3417338595371308 103 89 78
0.8021539397321482 -0.0986077684122131 0.3151401388845454 48 39 30
1.0586159275372240 -0.0606001959774562 0.6176319059296157 41 33 22
1.1844497652867716 -0.0682026805755738 0.4943933605497809 95 84 64
1.5226853485372551 -0.0305870269899635 0.0666420756830628 27 25 30
0.7026168234340765 -0.1188187631749723 0.2383148556904530 151 110 64
1.7534464753314274 -0.0561032892582061 0.5505659108903973 237 207 181
0.8830199476785296 -0.2844599610119184 0.5519558645625151 255 251 239
1.9806944540395206 0.0234280756612057 0.2932871682778772 86 76 66
1.0663106241142961 -0.2876156658977572 0.2733439924012767 164 147 129
1.0221140361456984 0.0020889368036471 0.0105108465370101 83 69 58
0.6974799815226411 -0.0352565798003657 0.1804540099178386 239 82 39
1.3268332189041583 0.0419007649918922 0.3064192261868088 100 85 64
0.8299535053631121 -0.0264746260291996 0.7122273039222696 36 22 9
1.7317491229996143 -0.2712669665093793 0.5300786911529165 182 160 147
0.8335584934708610 0.1891840593360829 0.0920273234229564 67 54 38
1.6257790501538980 -0.1001744129302681 0.0993082557203726 36 23 17
0.7189220676410467 -0.1656800813239815 0.7154435726405365 57 75 79
1.7596222353178568 -0.0869853519312037 0.1232174503529747 40 33 23
0.7094449013971672 -0.1512697977749541 0.0187829422001042 216 186 162
0.8593261178736578 -0.1377290278565572 0.1633728984719117 212 186 171
1.7257634055874402 -0.2649020846330895 0.2356754487214618 162 141 122
1.2819840029106275 -0.2799104627174266 0.4606205225217334 167 144 128
1.4701434616796865 -0.0864280815362096 0.4562960087894626 196 151 122
0.8149265625400589 -0.1128294726948541 0.2677031433109267 174 108 50
1.5519112424437349 -0.0779569811312285 0.5918975712192225 86 70 57
1.0719142280251179 -0.0860157085934427 0.4430321910818855 163 146 128
0.7514705801847043 -0.2525626496808655 0.4140999199839909 255 255 255
1.1311810140523397 0.0072234846375807 0.0885902108760159 103 90 74
1.1346136171981749 -0.3547459946584321 0.8094485465318987 166 153 147
0.7239655004391511 -0.1025540003234017 0.0668352966099615 59 32 13
0.8165023896483912 -0.1076092868512457 0.2645268724002740 211 194 178
1.4837165340953102 -0.2346731921252473 0.0154140391182793 141 125 112
0.9783938377040198 -0.2852105109971305 0.5979181623362823 136 128 109
0.7488615222615514 -0.0051642954741713 0.1258185161574692 109 96 80
1.7303553801803908 -0.2761569577656205 0.1853375092683855 163 142 121
0.7330415830310921 0.0025022892569595 0.2626690392646674 45 37 24
0.8049145505233506 0.0021122988039958 0.3260171917664447 56 47 42
0.9735515304805410 -0.2651368707941519 0.6351582374138606 139 126 109
0.8057563149322725 -0.0843599711137922 0.3195860753295164 13 8 5
1.4708329812109959 -0.0863785457816123 0.4964427266576246 207 50 0
0.9300010437225653 -0.0037119266112100 0.1672631444623374 35 29 17
1.1722687808603496 -0.0789740054446287 0.2037419509811805 234 213 196
1.0727573137577107 -0.0635089835028382 0.6362341968580711 178 159 144
0.6562505186539915 -0.2686512256344730 0.4472611378998552 142 149 141
0.7646193049891903 -0.2965278486860121 0.4606564726171115 169 157 141
1.7402138839887147 0.0127450431759092 0.1603887890233860 81 64 54
1.2037740981734082 -0.1234757026331540 0.4348794042652345 71 51 26
0.7409715258138254 -0.0277118397509146 0.1041159296148765 228 191 162
0.7581583889385503 -0.0832153524397899 0.0635221080943117 151 142 127
1.7436931566428608 -0.0791550679489699 0.4704803489444257 243 214 184
0.9688226413577790 -0.2436127953884160 0.7367556010718795 140 130 120
1.6628159539052201 0.0398069222674627 0.2382528041908787 116 99 89
0.9582944991068545 -0.2823442995066359 0.7030609661402416 173 155 141
0.8983613904258585 0.0010000745677153 -0.0222812812420101 81 69 57
1.8489328838248915 -0.0253722299898380 0.1597594294842347 246 215 184
1.6243321074204922 -0.2164658759514729 0.8021826442334071 147 129 109
1.1132552480398350 -0.2398909154080021 0.6677370363843546 141 134 116
0.8680688181089664 -0.1089639515049047 0.4267498531963236 130 114 101
0.7989129106544977 -0.3206410637480766 0.2329489259311116 168 148 124
0.8353725685999053 -0.2895399393338874 -0.0870740294646376 128 110 90
1.2323450766240136 -0.0732754718734413 0.7566310646261150 228 193 171
1.0851962868578675 -0.0546498926591273 0.5210637230327705 48 31 13
0.7540380042240451 -0.0978594401076630 0.7094126257026181 204 180 156
1.5839519615601063 -0.0573203539402839 0.5693063467133496 29 22 14
0.9309602028622566 -0.1222735680685288 0.4556679401447151 20 18 19
0.7967943348328314 -0.1101321085017176 0.3189510506431940 29 22 16
1.1427378413123379 0.0042008142774273 0.0235141335259471 84 70 59
1.9790655066227534 -0.1128466099081037 0.2077617641375178 160 143 127
1.4566654943761566 -0.0144959331927845 0.2609263388414026 182 160 137
1.7126460391736560 0.0214170527607065 0.7036417951821240 69 62 54
1.1345334113322245 0.0077833770493234 0.1165273200172177 85 68 50
0.9114553767343950 -0.1206462662022828 0.4539619745603714 212 201 181
1.1993760173247028 -0.0618124725420309 0.4875239954097558 228 181 153
1.8564750360066518 -0.0689297919039920 0.3575247548986761 35 12 0
1.8917047973098484 -0.1981184303227966 0.3912234335223754 218 171 129
1.7920332322066470 -0.0992138961898958 0.3479409269136261 93 174 227
1.2787277417276537 0.0144073783232100 0.5011135742370012 27 18 13
1.0376827704264557 -0.1963001704676082 0.3874854815179839 197 63 51
1.0776524462247998 -0.1236296260590316 0.3365934946943775 55 46 39
0.8465248142003110 0.0082055203380234 0.4480532714478105 73 63 51
1.5461396438856871 -0.1244365832534761 0.5207435219118731 208 198 173
1.5456776107229921 -0.0873901538698701 0.7096793870847464 30 23 30
0.9701717094337041 -0.1996223865386715 0.4213117021118602 204 222 226
1.5874194231519101 -0.0755615817979034 0.6467185500073127 46 31 24
0.9641613528128042 -0.0075199164473319 0.2182294177124359 111 97 84
1.5881326690865420 -0.0389540482505830 0.6771905932994370 167 149 137
1.0556292039730377 -0.0391392026500098 0.1711599515249446 140 168 127
0.8707644569006956 2.5869947851237325 0.3831178878135089 59 46 37
0.8099312276387653 -0.3070565221556780 0.2926374902125674 153 141 119
0.7675462082955974 0.0061317989245414 0.3294877945210769 64 55 40
1.7724625266649119 0.0110172832267178 0.1134670740677850 26 19 13
1.2890572992320677 0.0242555536069527 0.7456184888534836 88 71 55
0.9087162937206172 -0.0379325436518058 0.3356476275035116 69 86 67
1.1008848236329039 -0.1167536742638614 0.2807088094843807 127 167 192
0.8221456592755477 -0.1336418043447511 0.3018502606384910 46 42 33
0.7927248074656964 -0.0917473759463677 0.2304403251581115 66 50 35
0.9108949009607378 -0.0175113026634426 0.7333618660251260 32 16 16
0.7840557048732791 -0.0925916390553546 0.2298596553840487 71 57 44
1.2339864725453551 0.0057718020332135 0.7036727354001748 62 49 40
0.9821199842022287 -0.3099189159267279 -0.0580998503973986 254 255 255
0.7035976209732441 -0.0031075305144547 0.1198593465070519 86 72 59
0.7672492207730617 -0.0387249553114216 0.7111201846123333 31 21 19
1.8566067762953740 -0.2366949304698364 0.4052065165778665 135 124 106
1.1738504098316083 -0.0075805459722723 0.1881589485211793 154 137 117
0.7350488346946024 -0.0933224257313523 0.0703886252129719 67 44 26
0.7900456072610444 -0.2294028556748550 0.4233250748647048 126 105 86
1.0361185405947348 -0.0493605145077159 0.5972935536598345 43 35 24
0.7170338792069560 -0.0615209969338905 0.2397882024867318 244 167 159
1.7577362121047033 0.0235451265641102 0.3935323162023769 64 51 43
0.7739243401169730 -0.2976236039398678 0.0619464055445246 151 138 130
0.9815103187192108 -0.2955415058160376 0.0869598411239593 156 135 118
1.3916119686391795 0.0094437169028985 0.5710329565885178 78 66 50
1.5316388886562879 -0.2727203918942182 0.5215594014721636 127 116 98
0.7518135256578794 0.0020434586905620 0.0860901877932085 197 180 170
1.6906177700308935 0.0339327794444970 0.5552592081675258 99 86 77
0.8440041494394375 -0.0830061876761553 0.7232118206103972 55 46 41
0.8302400453972079 -0.2887921164280020 0.4096576898710321 21 12 7
1.4178116126269442 0.0119045853591979 0.1043838626957550 60 53 37
0.9312141989554396 -0.2018347126118045 0.4260243398808288 186 181 162
1.0789243632742980 0.0050745223197521 -0.0180826063783549 92 80 64
0.8177676154736591 -0.0170473008449112 0.2576333994217053 45 38 22
1.2442332976907307 0.0218045446511884 0.6678023224496206 67 51 38
0.7053886808137366 -0.0496122062811186 0.2553749699077830 244 151 146
1.1807944458756103 0.0328349813089986 0.1249028269964827 92 79 60
0.7435371966357045 -0.0077364296378802 0.1056639893557091 178 151 132
1.1069272859842760 -0.2882551056837463 0.1152520873078900 164 142 128
0.9263411735361597 -0.0137402399854574 0.4572957429297040 152 138 127
1.6756581047020240 -0.0646731801464319 0.1326720342274783 72 59 40
1.1816759980914666 -0.0680428874437226 0.5597050029493973 92 92 84
1.2979204416430872 0.0089730808913416 0.1129428372927406 100 88 66
0.7125532781757035 -0.0088723893667631 0.1215821694969372 90 78 66
1.6414419944164460 0.0193149276227986 0.3544790827505520 110 100 90
0.6941929087798587 -0.3044901225847292 0.1582297927894697 119 105 94
1.4566216641509375 -0.0802085996183036 0.5225708670822043 165 135 109
1.1916485809686708 -0.0697933171197886 0.0386670008503664 82 64 52
0.7052552034315424 0.0072758932310081 0.3670571357146252 61 51 41
1.5808415342422493 -0.0133316011037699 0.3283167653608855 61 46 39
0.9647187651925896 0.0114790046537744 0.4942909377629892 82 66 51
1.2121520680824072 -0.0737255397617516 0.4461965421040985 244 199 176
0.9403694496945481 -0.3016805493366166 0.2662835031483564 169 152 142
0.7146850980998128 -0.2528637738049677 0.3773908605824188 113 100 91
1.7774303776914646 -0.0933199600623825 0.3285976087428545 94 58 24
