ply
format ascii 1.0
element vertex 698
property double x
property double y
property double z
property uchar red
property uchar green
property uchar blue
end_header
1.9719982636387283 1.2596220776837084 0.8457931044980880 166 165 161
1.2602672621487081 1.0604730590629270 -0.6071513202052546 98 87 83
1.2364001318304700 0.6007686388010806 4.3811254459297784 159 158 163
1.2211407838031498 1.2160444530363257 -0.4458118892957557 90 91 93
1.5799376915842254 1.1946226340315480 0.1550033272377001 111 115 116
-1.3677827541234697 -0.6525813466231839 0.2993134463788178 218 209 200
0.1806785158373088 1.1885672296827960 1.0636379153998121 119 116 111
-0.2642792447698007 1.2283467529259100 0.5097893211054199 140 136 133
1.4694853495795257 0.9922921808127979 -0.4672558509515962 87 85 86
2.6706176410572251 6.4099381147736247 6.0933295069564144 146 146 146
1.9680825187634519 1.3205760286954527 1.2484985025666606 139 138 134
-0.9014327716307015 3.7392454216865461 3.1743077349973823 121 122 117
1.5202863613633719 1.4077521531910298 0.0731829057941292 134 133 129
-0.3259130319463801 0.9742994724327068 -0.8489280730151595 106 90 67
1.3214844506227770 -0.9209185215431031 -0.8307750992964612 98 73 53
0.7912226063383196 1.2952031171386593 2.0312519698012639 98 95 90
-1.2490838868482186 1.4762350997745397 1.9911910634214081 131 120 118
1.6031825001012470 1.1399024899858237 -0.7017803200664496 61 61 61
1.7172859425996578 0.1814093787718764 0.1513227764846614 46 42 33
2.5292273002092682 1.1520082134419545 0.9690445695690040 20 20 18
0.2139861969242908 1.1994285734091161 0.3983191619437584 105 105 103
2.3571785187673995 1.0769711996677189 -0.7191567054263198 80 80 78
1.2929371257480733 1.1695966267711162 0.1968617796496751 128 128 128
1.5346391137485320 0.8432480092483189 -1.0038274692480713 107 85 64
2.0908598377790373 -1.1899562782248139 0.7676593454547852 163 159 158
2.6728271886668842 -1.0942114941369752 0.7744332458102666 28 26 27
2.3248920083878493 1.0583775280516441 -0.7035077207080255 65 61 58
1.2968324868294061 1.1909592991547973 -0.2016940889190730 95 96 98
2.5311894385788376 -1.0011834207551524 0.7767393427678245 30 30 28
0.0670233569170049 1.2027701178327570 -0.0763397559612433 107 108 103
1.7344995881075194 1.1942347615128619 0.2200636555803011 138 140 139
-0.2117233848855394 1.2631806991936880 1.6775665093043985 115 116 111
-0.9286160528416390 -1.0660791105909764 -0.3926476879801813 23 16 8
2.7371531630981911 -1.4596524358363794 -0.4395674798979261 20 16 13
1.5670864194194472 1.1882059160271448 0.5242466664097476 116 115 111
1.5218032780429729 1.1139107012777552 -0.6847380276758046 84 83 79
2.0099839320394417 1.1640774165668049 0.0400644914279510 135 134 130
2.0561075392824253 -0.9859807905163460 -0.8283359053811139 49 35 26
-2.1170249179739056 1.0044573702935378 0.5348346253786646 181 176 173
-0.9494060651263473 1.2053428299482065 0.4195390873009475 144 140 131
-0.8210681206250529 -0.3437076297735779 3.1288971913471917 59 44 37
1.5848600910176491 1.2018011448558601 -0.7167227301776277 80 76 73
-0.4371477171428743 9.5539491329952106 1.5060361167727789 34 41 49
1.6850782507464166 0.8514024726574011 -0.9984646803020080 103 79 55
1.5619275695861345 1.3617744192457428 -0.1016361099875666 123 122 118
1.6905114436268427 -0.0793481310046574 -0.5408858298403495 34 33 41
1.9944542223602828 1.2923377458724645 0.8541950122935439 139 138 134
0.4359970398371695 0.5937994080382120 -0.9473184166936699 202 194 191
2.3686617716606500 1.2043923546264783 0.2624914413005903 123 120 115
-1.0177671922599527 0.9083281967975364 -0.7753499410787231 153 156 161
1.4137729940063013 1.1599739764724184 -0.6255430069965463 90 85 79
-0.2319839917382490 1.3040732263113819 2.9439053590506714 114 113 109
-1.6014014934030378 -0.4237996971291660 1.0546537592393694 69 60 63
1.8675305864872942 1.1448140300845910 -0.7620525110342293 70 69 65
2.5460922060869016 -1.0908051140385258 -0.0460770073989962 82 78 75
2.7141685543568381 -1.0031354979569866 1.2082166421748590 57 57 57
0.6910401210925127 1.2388757600819622 0.8577805007574284 165 165 165
-0.7483180795394299 -1.1873461853498393 -0.7488881023667585 38 28 19
1.2970286096527166 1.1174610256154300 -0.3871745756072442 119 119 119
0.5359966543141209 1.2655676505779043 0.9389422031419670 116 113 108
2.4029565664830748 1.3096799498741152 0.3287753124126377 128 127 123
2.4164572369128674 1.0153116097368067 -0.3215551634418565 70 70 68
-1.8500424454943571 -1.5107090655453403 4.0600778373197555 94 77 70
1.0410667672893850 0.8012315083603371 1.6661256057700589 127 126 124
1.8284939850297590 0.3309552067190779 -0.9881627348849199 120 98 75
2.2889285408089588 1.2147705170093612 0.8559451879986151 103 103 101
2.2401742163897880 1.1945680292998777 -0.0006120834205740 93 95 94
1.9816153686800715 1.2819423612112044 1.3690120464688489 137 134 129
2.4844123844846857 -1.1938844595652269 -0.6104465505883723 13 10 5
2.0771198579237411 1.1497144168465669 -0.1341870396106699 93 95 90
0.4372737533381013 1.2570793014760280 1.9653740998724214 110 107 102
1.3181159475825990 1.1195300752952935 -0.3120232652997109 108 108 106
-0.0577735281199467 1.2420229641256846 1.4758125047078339 127 127 125
1.7440296409396563 1.2093944384213529 0.2043889017371331 98 100 99
1.1903676594475163 1.2236980444474461 -0.0833708938350145 95 94 92
-0.9793520404226735 0.2387301602582914 0.9500263667725871 92 75 68
-0.7625108393898328 1.3208629422557339 2.8887300391746149 92 88 79
1.7872578095889902 1.1288616062563692 -0.6866437386479746 74 70 67
0.2424144835650854 4.1798971650111119 -0.0326212315171142 42 42 42
1.9102832919287074 1.2216058369294713 0.1107703166813884 129 133 132
2.5208141481304094 1.2563921547593626 0.3929520790280135 120 115 111
-0.3304201777779077 1.3350644835794752 1.9449762577900658 143 144 138
1.8594909787928400 1.2062683149778020 0.7347196698084024 160 156 153
-1.0225831749734469 -0.9266296367654843 0.7529274210012070 66 54 56
2.4386092402018140 1.1133977592996525 -0.6977191339302504 68 68 68
2.5360502650585834 1.0424686934254512 0.8572819421368966 82 84 81
0.7012321230224423 1.5993723836657172 0.8484410207651016 115 112 103
-0.9972698242676707 -1.4016292359434941 -0.6605000065482274 5 0 0
1.0794867472624101 0.9969661013430609 -0.5918815862496426 106 96 94
0.4066531825359531 1.2648359670795619 1.3372809922001674 136 135 130
0.9724485460552675 1.1645916197917296 -0.3568355752356177 132 132 134
2.2221252701175116 1.1546640512521635 -0.9555941876012878 61 61 59
0.8072513058208194 1.1709902515934980 0.2411670363740193 113 112 108
-0.3047000781407073 1.2000129009664511 1.3375245084693765 129 128 123
0.3362710666361209 1.3139936832993613 2.6094295365568607 226 226 234
2.6347335160235845 -1.1096369422187708 0.8770190119073741 17 16 12
0.2877973938765769 1.1212217841116381 0.3805369211491176 169 170 174
1.8221658864974035 1.1607072130109637 0.1119366888283889 99 101 100
0.8740833399678976 1.2729264910694569 0.9115085537776820 158 159 163
2.3145935281730186 -0.9638123961017105 -0.9137631351948657 71 48 30
-0.9160219656843842 1.4939005523351085 3.6265970685098852 23 14 7
-0.3563495479785068 1.2162064534771813 1.2897581840291021 116 113 108
1.8492677235890338 1.1850434682932445 0.5358991531950541 155 151 148
2.0573733818572983 1.1775764424729953 -0.0894365834441046 87 89 88
2.4017862698412116 -0.9124890566100458 -0.9737124396833505 58 45 37
0.8102032001503390 1.3392712486205653 -1.2106121117923971 51 25 0
1.6280146034525997 1.9957085231847327 -0.8286817142743385 80 81 83
-1.6296518732328986 1.1524406038067334 0.1167621086147515 137 137 137
-0.4519240683063961 1.2880846280321967 2.5289358205796537 128 124 115
-0.8845821898312002 -0.3453784606849986 3.1340239422347098 90 65 45
1.7533505364585560 1.2574024476341141 0.9158592279954472 117 119 118
2.1391356402051209 1.1956543556004537 0.5209248168868176 127 123 120
0.2607795925875766 1.2105350705802318 4.5387968948964899 149 144 141
-2.3259554359084329 6.2301759435703010 3.7017235615648629 148 145 140
2.3558262274547310 1.2457051955918970 -0.2574237243595928 102 99 94
2.5012759830964382 -1.0062836551333862 -0.1172315764068829 22 18 15
-0.3326745137557043 1.3418493240369960 2.7920354479287783 75 74 69
1.6148149434486105 1.2532339703078210 1.2810852000757742 140 141 136
2.0308828099760992 0.8890147450062478 -1.0263531957686760 106 84 61
0.8636172397837361 0.8064231591168187 -0.9147064517094947 161 134 105
1.3503286887094372 0.2220725463146445 -0.9631687174857898 144 119 88
-2.6330480189013041 -1.6175027979647476 2.4934313916401694 212 198 185
1.4094739477613765 1.2159292871232175 1.1924313289947475 165 164 160
0.4996746906777018 1.1944513457322357 -0.2365673374859968 105 105 103
1.1873377926102064 -1.0267555028243658 1.3292014922840287 143 141 142
2.4154075207536039 1.1246411979853226 1.5738887555455745 141 140 138
1.9785703482367090 1.2404276987369407 0.2799100643332468 108 109 111
1.1524360026511280 1.2929045386024258 0.4770881347989313 134 135 137
2.4453445048100066 1.0221810546634200 0.8948786246373286 149 147 148
2.4553082970401063 0.7509126836570420 -0.3551086032964403 30 29 24
5.5187380040275569 9.9112026787749752 6.3729724531072334 102 103 105
1.1870583405821766 1.1268351647209218 -0.1767743157860868 140 140 142
0.5291273305686018 1.2198314813250741 0.8531156309383318 136 135 133
0.5969749819493706 1.4234056259241286 2.2007907893714580 80 79 75
2.4976658790121440 0.7425019784605675 2.7205648842424619 148 152 163
2.5178978060164563 -1.2708589659580580 -0.1663677920117020 35 30 27
2.7426627330435531 0.2137559240607338 1.3278245863104152 135 130 136
2.0709108818127544 1.2130998022730508 0.2948549238602144 134 133 129
-0.1700158347532016 1.1648128160989100 0.3971376817186643 158 158 158
2.6820292655404936 -1.1228337687327603 1.5142923938895116 69 52 44
0.2150305985894896 1.3093869214742362 2.9337457831526468 83 82 78
-1.5685811676519903 1.1026425808835938 0.6889208273822668 233 232 238
0.7652676855863204 0.7336670386323968 1.8076613909100780 199 197 182
-0.0290398803584835 -1.3822197106589700 2.7312449796996874 201 200 206
2.4258917532189841 -0.7000657648142660 -0.4607400487289873 76 73 64
0.1514550352219028 1.1502054341845913 -0.1529501484235699 123 122 118
-0.9905442830570722 0.0501904553357402 1.8604161898575384 211 219 230
1.1536013056708805 1.2064812953918937 -0.1225743554000999 90 89 87
0.9110061583531881 0.9850026821082208 -0.3654878739727243 118 117 113
0.2967269868100437 1.0750145881643558 1.3696024736439618 124 123 119
2.5568725650411928 1.1625983455661710 -0.1188315467776806 93 92 90
-1.3874364905944059 0.6221528432466831 2.6002992877838818 104 94 92
-1.0490062024038220 1.3345432537449249 2.0966877793526235 97 90 82
2.3032455352284620 -1.2627868766300330 -0.9417712607960379 26 9 1
1.6922618842760502 1.1039382430348514 0.0935288640646228 128 130 127
2.4040316151504135 1.0526094708117288 -0.7092199117030196 17 17 17
0.8804782810820910 1.2185436326471670 -0.3729273934362516 124 123 119
2.4791054650243138 1.3010516791628468 0.5928254448605123 120 115 112
1.2864020943662575 1.2384720605351820 0.1729656512934794 103 102 98
-0.0623570854917628 1.2777535926710504 1.4251732101124182 122 119 114
0.6461234146440062 1.2714417145014112 0.6823088478711695 139 138 133
0.0584960780088412 -1.2280580251373858 -0.7945789892721837 81 58 42
2.5020264631359881 -1.1518916059646378 -0.3416165395822847 48 44 41
1.9398992836826288 -1.0711462648557808 -0.9621697765863262 64 47 31
-1.3815843851595648 0.0168902818338509 1.1708160276910338 173 143 145
-1.2553982479606685 2.0753341921467086 0.6485966166251379 151 151 153
1.4316267723480371 0.9419716182815951 -0.6446333229969908 189 166 152
-0.0076364479663905 1.3072088488535216 1.0380751181415062 120 117 112
0.0278677281369316 1.2530498361052580 1.3310146530962366 83 82 78
3.2911135402326477 -3.5496771613008611 -2.6289016160403009 51 35 22
2.4468733572303849 1.1528760976084242 -0.0786509053735937 108 108 108
-0.2848302863775136 -0.2578553833537205 -0.8085092517354088 101 79 58
0.8460627293425828 0.0868591577629664 -1.0206940096766495 149 127 106
0.3783997081754154 1.3098280207445328 1.7321825248221607 128 124 115
1.6987985556597069 1.2164556894800380 0.4266481206986139 131 132 134
-0.0935452787945559 1.2104705342780300 1.1956826351302137 84 79 73
-1.0273722348382313 2.7660746779485170 1.5304803244650067 58 55 46
2.1798663494697408 1.1706982830113726 -0.0911836312556744 85 85 85
0.1764929009976386 0.9146204959293120 -0.4068819923210896 114 114 116
0.8719427529179613 0.7524714013527708 2.0539091864556918 223 222 217
1.6864162863545156 1.0731063022759573 -0.1459952382387100 113 114 116
-2.2672009312835284 0.0208113682102302 1.3250312276171032 253 244 237
0.4213223818592879 0.7794790078454172 -0.8634511909291123 115 91 63
2.2885891803852538 1.0452843665859162 -0.3844049431553199 72 72 70
1.9345087615387486 0.5371907088008182 -0.7922455492797771 91 77 64
0.3104408236247577 1.1436249658032580 -0.1553035143645745 110 111 106
-0.6668272139558180 1.2185222479944566 0.6818952695388331 106 106 98
2.0182774130121004 1.2721693408587853 -0.0318251757367006 120 120 118
2.4477332514159285 0.9920745531156092 -0.0743104479628951 67 69 68
-1.0956378570605534 -0.5987371498957713 2.0361423994486438 64 55 50
1.8003269376057176 1.4926008810332014 -1.1511051541083774 75 74 72
-1.2598441835523064 -0.3176225041319746 0.9858382079647662 207 206 214
2.4698912666342840 -1.2997470458901834 -0.8639228046661346 42 29 20
-2.3287153607988436 0.8036700916906655 1.3502440619926921 178 161 154
2.6507504606335428 -0.9087681204272949 2.2406408398593487 99 82 75
0.2940645373524928 1.3690841611373039 3.2306993278585106 105 105 103
2.0781121823540794 1.1937600667934669 -0.9059630987547631 57 56 52
1.1148765869857573 0.8822272082157800 -0.8718301632866675 191 164 145
-0.8817722522926229 1.1568329735198031 2.2897320568740400 253 241 229
0.0226524853808167 1.0575154560329127 -0.3815747852437871 137 137 139
1.7949340349170635 -0.3544725111096834 -0.9204654631898107 117 99 77
1.8180443468193999 1.1225639339859947 -0.9994745938762269 77 68 63
2.4553057113182843 -1.0196573293222668 -0.5425542272753813 47 44 39
-1.1381053189074353 -0.7472555287307407 3.1942243186492512 255 248 232
0.2194707892352048 1.2420119260073725 0.4810761254179068 126 125 121
1.8689354346341078 -1.3377371893055130 -0.3104991126533059 103 102 100
0.3200553275165171 0.9342185706014394 -0.9040175107214395 141 117 93
0.4187735512208167 1.3123014255188457 2.3821496426981277 101 102 96
0.8311623939542110 1.0580534249040550 1.8700552578992760 99 96 91
2.1540582654834033 0.3179884439006199 -0.9955808184167321 118 96 73
2.4208683194576412 0.9062930602737521 -0.6311081897418156 60 59 57
0.5585512708570132 1.1158821793290299 -0.1622496616473552 129 128 124
-0.8421634343528231 1.2073468946898422 0.7506539667446408 142 139 130
0.8495600931582431 1.0398700874087803 -0.5936520727582566 194 180 171
0.4935051190673491 0.9224175229905861 2.8264371149661796 178 185 193
2.5327419409238976 1.1158956762900318 3.9252543872554710 37 37 37
2.1700881228026407 0.9527513673473601 -1.0264975393405285 97 85 73
-3.0852738453581385 -1.2627818585128812 2.3805568533166341 234 224 215
2.5888566327896947 1.1805732947984879 0.6027925671080442 125 127 126
1.1295810043075163 -0.8345765523524152 -0.9564179155688461 110 88 65
1.7412496397093868 1.1627862902326644 -0.9797259231113072 60 60 58
0.3100053110667710 1.1862307036026494 -0.4028884333675652 108 108 106
-1.2468083209796184 0.9997320278655482 1.0146660387196476 110 103 110
-0.0006996743241172 1.4407416875207937 3.6125531271668696 88 85 76
-0.2251796155738086 -0.1376552643209941 3.4265578161603067 173 181 194
-2.2535034064418107 0.5213739400413494 3.8230703844247347 126 107 93
0.5995841771179381 0.8043219059700871 1.8654123593214020 247 245 246
-0.8721184383125199 -1.1544377024466568 -0.8198558382340172 95 78 60
0.0067339298195654 1.0655029513695315 1.1360556120391727 140 139 135
-6.1751774609009038 0.6077394066638532 4.8680941157966195 121 116 110
1.8732184379501240 -0.4887587010260286 -0.9301234858415964 100 82 62
2.2751895617776610 1.1751122819911242 0.0323042509335749 83 85 84
1.4379941616004031 -1.0621018941368230 -0.8968339786032992 77 61 46
-0.1468813467082987 1.3048131363169244 1.8776985857888961 146 145 141
1.5851860609475343 1.1199807778190045 0.5369300791970214 124 120 117
0.6107842115334968 1.1998102046906418 0.1920894717377867 118 117 113
2.4599248207893893 0.0459423397211115 -0.0975788295180265 126 127 131
1.7666391224378346 -0.0894683960716521 -0.5422592705033989 150 129 108
-0.8860503156303411 0.9747164637031619 1.6911603329718687 169 178 195
2.4961791764453332 0.9700583951866535 -0.7313820817803208 10 10 8
0.4265458923879650 0.9496326128518877 -0.7239453838210982 198 172 155
-0.5625397792405904 1.1593289256143282 0.4709184000783464 104 101 94
-0.7011631541053506 1.2696050049694827 1.5040362571021484 82 81 76
3.2471427101804577 6.8255225274314375 2.6049610508053394 100 101 103
-0.7798991930622299 1.2171442581940228 1.2004118426060333 83 80 75
1.7406757861577806 1.1697557250872626 0.2942548141020168 147 146 142
1.3016231243683813 1.1901374872463681 0.9140537893074129 119 119 117
-1.5023177836989587 1.8127925600379506 2.3564867553493118 140 131 122
2.2843555135755769 1.0603898821737512 -0.2546103344407349 103 103 103
-0.3318218335529826 1.2641244082561607 1.1856758298074745 118 119 114
0.6222601604341881 1.2260863420328749 0.0773779251834489 128 127 125
0.5531885645455051 1.1077813320266066 -0.5326437907528337 119 111 109
-0.1682613799911917 1.2733263556604157 1.5476368647571592 132 133 128
-0.1623244376981725 -0.9085929856787380 3.4035151866657536 132 126 126
2.7443479305119460 -1.0664837964372149 3.7117575661550419 52 44 42
-0.2459289277096851 1.1999388854709483 0.2970295142273655 101 100 96
2.0663495007402699 -0.0794566767938717 1.2377384292709050 148 151 156
1.5808181945283759 0.9825937925247080 -0.8181356193338544 69 69 67
0.3040996607292358 0.9270141428859697 -0.9480332359106427 146 128 104
3.7336110700362268 -0.9845960456529887 0.4008871014655589 24 34 44
0.9787205797644682 1.3216424166686549 1.5473026186890244 202 198 195
1.3771905919537575 1.3678176061635960 -0.4781288389801854 111 111 111
2.2344180968749185 1.1667331242922012 0.0434184964570789 90 92 91
-2.0298734817181061 0.7993925405211184 2.1002492274115543 249 229 205
-1.0715120777382474 1.2067595107077862 0.7059026882484410 145 138 132
2.4446934310586177 0.9024449741129064 -0.7921809896182189 175 165 156
2.4440336803392437 0.3154319510885177 -0.7859150557988163 79 63 47
1.4721406926350387 0.6625188127616570 4.5595468144458131 163 162 168
-0.7065591954253398 1.2431361498065889 -0.0163742880774610 139 135 132
2.5493361152672249 1.0265128016967204 -0.4310059893661445 79 78 76
1.6885932137011979 1.2606182299833020 1.2981788435555506 147 147 145
2.4369125443691630 1.1191737258200323 -0.6143639147210241 31 31 29
2.4351259039736122 0.3288201037718985 4.3579298475132147 57 50 57
-0.0864112821486543 1.2128940955897365 0.0948551496769096 89 88 84
-0.0864526824213263 1.1475779542882050 0.4102619508795357 107 104 99
2.6953166265916817 -1.3068785401120240 0.8991998165622412 26 22 21
2.4459382757369799 0.9025475046338899 -0.3115033718011267 36 37 32
0.9206581961488939 1.4019987651616823 -0.1868144502238400 132 132 134
0.6920346127372676 -0.4677531372658024 0.9541305455407432 151 150 156
-0.4601171711570116 1.2241605044844361 0.8701361632428348 120 119 115
2.5936280309463302 -1.0718679712736032 -0.0386147630984303 102 101 97
-1.9047705844597147 1.1427790366997379 0.4866168361517113 212 213 215
1.5381119256224631 1.2799139399145187 0.5385621237734001 125 126 128
0.6363226395893983 1.0853994580746029 1.3610304032988851 213 210 217
0.6784579067332811 0.8024713556884526 1.7418710760507947 179 177 164
2.0486683156057799 1.1607112764780116 0.1800562812539600 126 128 127
1.3013134921692322 0.8477932881988276 0.3316119548765197 156 157 159
1.6973691410602290 -1.3745499839030908 -0.8527398520085340 72 64 61
2.3925262577835196 -0.6385331044876270 -0.9670058304850848 81 71 72
2.1098191482190121 -1.3069790486702930 -0.0667092456649530 13 12 10
0.5082611827235538 1.1637034949581342 -0.5478858200695604 85 78 72
-0.8615470287432816 1.3386479513032230 2.2520586965297027 145 141 130
2.4448529074801306 -1.1595483477589319 -0.3399573441101083 33 29 26
1.5438292096012998 1.1351314003953128 -0.4838416576774375 116 116 118
1.5100587132505430 1.1073827106257872 -1.0125483605463896 20 7 0
0.1565685902132405 1.1551579847943299 -0.1932795745010438 82 83 78
1.6604622973824141 1.1207348251396723 -0.9631958874244246 59 54 51
2.0623341794944712 0.4626939265428727 -0.2843011686736223 76 72 69
-0.6307652532370470 -1.6015264086036993 -1.9866698297745784 95 70 50
1.2046993902164356 4.5475241991141244 3.1725815406771702 116 115 110
2.3120461614724204 1.1402822329752900 0.1862079442155088 83 80 75
1.4731378799219808 -0.0822599390730554 -0.9103423541593426 137 117 93
-0.9357384000732800 1.3277883984003209 2.0259870767261394 122 115 107
-0.0545930258637343 5.3951180201379705 1.2820090713726537 55 59 70
1.6541064292306356 1.2386470180766174 -0.0080619913380524 129 128 124
1.1965937892847354 1.1718012090307690 -0.3687909623216967 128 128 130
0.3798952927690110 9.8288426262890223 3.4663382941746592 132 134 133
1.2064380314899386 -0.8438867353566498 -0.1487591980778258 73 64 59
0.4383619508045746 3.3107164689317616 1.8079098903897644 106 103 94
1.4736619787708058 0.3433052913484503 0.6001824280059977 250 248 249
0.9875374776100766 1.2059249237328169 1.4810795695030006 165 166 161
-0.4607905139136779 -1.1368299299285785 5.1620957858789795 81 76 72
0.1369724275931924 0.8549333706660045 -0.9456103639465349 129 105 77
1.2736065456969810 1.2082570920159612 -0.3180228823474044 123 125 124
0.0903584602968745 1.2485854933392377 2.2434029843185179 139 135 132
-5.6092264954124920 -1.1215241689934046 4.7098402421786920 96 87 80
-0.3604448620835560 1.1660988096643079 0.3385129788730946 109 108 104
2.3047240038835040 1.0763064280397416 -0.3991403022754171 71 71 69
2.9814485135083717 1.0604901079881917 4.7675591312619616 148 146 147
2.0226213533283377 1.1380376442084907 -0.1103961943184744 95 96 91
0.3494040793170571 1.2696962721598675 -0.1116724751681531 112 112 104
2.5177139604679608 1.2484115674437839 1.5319243527900643 89 89 91
-0.1223009928739432 1.1570677119332704 1.0055905764960071 143 142 138
0.5312360676081325 1.2991588805202550 1.7234805279584555 103 102 98
2.5299345910621804 1.0966464349248868 1.4465952775752724 60 58 59
1.8479585133137604 1.3527898711482891 1.4369793787845329 143 144 146
0.0647424227265374 1.2099987074334762 1.1006865276039608 100 100 92
0.0501093934116284 1.2664975589650833 0.6908672622794800 175 172 167
-0.8863138481600374 0.9710807239646752 0.1910192772276080 30 26 25
2.0344930110621084 1.1963678488133078 0.1623356299995022 119 121 120
0.4259458659432984 1.2088919064106662 -0.0641466294760809 81 81 79
0.6034283827249439 1.1933911690552979 0.3766561096801684 117 116 112
0.2692183744463534 1.2663906573762405 0.6109711606285096 129 130 125
0.6987743866659117 -0.8738254058839837 1.2284257390320850 211 210 216
1.0566132636215111 1.1440196098569111 -0.1340304772105890 129 129 129
-1.1619620221887546 0.8738184158302420 1.9491082572277585 34 15 0
1.7134328066689877 -0.0904163893105828 -0.5279832457281606 137 115 94
-0.9326723760802110 1.1459513579766261 0.3692428388469195 106 97 88
-0.9457651272987829 1.2137092711569049 -0.1879260651617180 67 63 62
1.7876589542556405 1.1055490971404991 0.0439117159900738 113 114 116
-0.2283969818046901 1.3014722366311386 2.1141522488962923 135 132 127
-1.2139009968990826 1.0287286680286427 0.8845233073808105 132 122 112
2.4387977637916514 -1.2578069939689420 -1.0305052540393824 45 29 14
0.4161952573455100 1.2581938292886095 0.0428656159588244 113 112 110
1.9444966342034826 0.4929471479544311 -1.0002073039287467 98 76 53
1.5293530873512260 1.0855106977395106 -0.2975537050131900 103 103 103
-0.4311727290783956 1.3175371120360508 1.5875881173101420 91 92 87
0.4097927230100114 1.2073491661301823 -0.1105313952245646 85 84 80
0.6505782526437083 1.2057145154782192 1.1954716119076665 135 134 129
0.1799526599973541 1.3534332633682589 1.3376060913805610 121 122 117
2.4443083451473155 0.1563525139470556 -0.7255020409896653 24 19 15
2.3249087431964979 1.2615783007574459 2.6230994158772796 124 126 125
1.8755186966433890 0.9702689641220053 -0.3072025058591558 75 76 78
1.1984271001669835 1.1153818104787570 -0.5971053159525823 117 109 107
1.6279557683208854 1.1209714668860531 -0.5362734142602062 64 64 62
1.0374528165616757 0.7703193086554780 1.7306044227708521 213 211 199
1.3668275412715787 1.2860096118999103 -1.1497164288796344 49 32 24
2.7592699641096154 6.3180170266545677 3.3482450927050951 110 109 105
1.6280538201884445 1.0804010038782501 0.0003257806431195 83 83 83
2.0412142547180232 1.2155241708197393 -0.0494627463491188 119 120 115
0.6607841991018146 -0.9517607890504690 -0.5292027180212860 26 13 4
-2.1446171750536678 -1.1116271959145574 1.2520998426304935 79 68 76
-0.2794877312506236 1.3815981712493006 2.8408082201530189 79 78 74
1.3757360279094089 1.2187710743206164 0.8339184174442821 112 112 110
1.4555042890656169 0.2185854479945837 -0.9333614558424014 121 99 75
-0.0106377013947307 0.7378877399666880 0.4712705123645469 83 79 70
2.2978989417158715 1.1286758915495605 0.4820266008284837 126 125 121
1.4445464541062112 1.1171970397969149 -0.4581840274605853 91 91 91
0.3645659844248173 1.3089822133125966 0.8524649224090500 156 152 149
0.7362922645246323 1.3752241210211706 1.1018915377217917 163 163 163
0.4443119821733711 0.7679768314687427 0.8381559966337571 149 148 146
1.2405689678171268 -0.9929088162709157 -0.8536856427131964 86 69 53
1.3186221898982786 1.4675796143565520 0.2869211698417919 121 125 126
1.2879475322144094 1.1606278540416326 -0.5296154364947803 115 113 114
2.6460354445649927 0.3988570522007672 0.4010211954043623 217 210 218
0.9776128394631896 0.2814733577878416 -0.9233381228779834 116 92 64
2.4455399185494606 1.2550968389017763 -0.4868608603295514 102 102 100
2.3676099661683025 1.2053563244600591 0.2715022197754501 122 124 121
0.4657948412552497 0.6817694269588956 -0.9183427388659218 207 210 219
-0.9463958049982143 1.1945322301754651 0.3755926639315792 133 129 120
-0.5917948647816070 1.0111130685680185 0.0396121574480962 72 71 67
1.6568346058999699 1.0912619486502011 -0.8656838468777069 83 83 83
-0.0452442990382158 1.4915237280827711 1.0254474016015782 169 165 164
-0.8161221879708980 1.2367005955889121 0.8792978716093059 105 102 95
0.6264943919055419 0.9799351962712207 2.1822853262707187 76 70 56
-0.1851908315559881 1.1008499418584801 -0.4401782906577464 68 67 62
0.0049565987764289 1.2311703874566124 1.3212777418454966 120 117 112
2.4965125881487795 1.2015823895355753 0.2015637405900993 88 90 87
1.5275835248603120 1.6007520985819939 -0.4832471158910868 89 86 81
-0.1605021957047030 1.1202203094644783 0.9984784670922343 124 125 120
0.3542567899047271 1.1388119051262213 0.6874885473607134 97 96 91
0.1421020286907040 0.7221793684261295 -0.6235721958183733 51 30 13
2.2539830441298383 1.2709853743502266 1.5989467736053204 127 127 125
0.4084949314445258 1.3295476791995950 1.6126329971041915 188 188 188
1.3987660702509690 1.8119450364559453 -0.2386004275352654 127 127 127
-1.1601733849499645 -1.1576748849850997 0.8834115662948639 92 75 68
-0.0286077069809468 1.4249855411409711 1.3417333261104678 186 184 189
1.8752513632580097 1.1661993924372924 -0.1910759312926878 76 80 79
1.3418906822706740 1.2903526424726466 1.0257671885557409 154 155 159
0.9074704132478205 1.2101632485971749 0.1758556781471765 108 108 106
1.7632985212674697 -1.3001128274683509 -0.7455754968675569 91 90 86
2.6543529165962902 1.0829009224996091 -0.4282451545391609 58 57 53
-0.1938433988201663 1.1236992558265924 -0.7277502143654540 74 63 57
0.3550923437961594 0.2576245741764692 -1.0275819996194813 121 97 71
-0.4355323286767211 1.2195712690710265 1.5531732217213783 107 104 99
-1.3189268408654784 1.3655213045489689 2.7084112704176579 249 248 246
0.3590818945025398 1.3482488963124462 3.4793720439000659 77 78 73
1.1608827813035101 1.2053457678406720 -0.2086377849494787 81 81 79
1.3004711113137211 1.1902341125648201 -0.2126591375710421 103 104 108
2.6279206988173676 0.4441924606297344 1.2977663163478423 150 142 139
1.4670206884310750 1.4287124349755242 -0.5649983721059220 105 105 105
0.9760367089545090 -0.0418514449824441 -0.9226374727497633 121 99 75
2.3654435207417994 1.2073739218347086 1.5511927528265845 91 92 97
1.2139232323453109 1.1210955580174151 -0.3899386366872158 122 122 124
2.8214153769750596 -1.6466794729111134 0.3819315956719205 24 12 12
0.0456049946757201 11.3707471482460392 -1.6900666032234695 120 120 112
2.2148139056831293 1.2321813030731996 2.6466620414374171 64 68 71
-0.0932944141508265 1.2966600299029019 1.6721966123473551 125 125 115
0.1834740823691716 2.5668318869148372 1.9065003003998742 124 124 122
3.4116432244982042 -1.1097203936093709 0.4107350072588564 21 21 29
2.5718784034042117 -0.2257947794521524 -0.2287217527293459 73 70 63
0.5386457499222995 1.2436950024775486 -0.3863156031311343 133 133 135
0.2301366028873749 0.8208580677606933 -0.5499438301291982 134 116 96
1.5417746068155493 1.3825408803956123 1.5000359561373717 144 143 139
2.6584028695244371 0.8914788225067705 4.9784034139642213 60 47 39
0.5157957962515060 0.9625457921237821 -0.6881755005187428 202 179 161
0.1961182545873287 1.1829884094454128 -0.0714432175782695 99 98 93
0.7607439059621592 0.8865556956099602 -0.6416517886582577 185 168 158
-0.2485819917399418 1.3284321161374855 1.8241390453043576 146 147 142
2.5278798263564894 -1.1146349156850224 -0.6894230309216913 41 40 35
1.8114589527324112 -0.9426258872744934 -0.8760516382301531 77 61 46
2.7026075673285490 -1.0241874551309522 0.5775605046564298 13 12 17
2.3301498319140079 1.1673040568251727 -0.0839907150513109 119 119 119
-1.4712847643252174 0.9512049302711824 1.0712224882015009 121 102 106
-0.7687721033230648 0.7164471411911325 3.7282442024232019 196 196 198
1.4711966413935991 0.7450808372470006 -0.8201724650703716 174 152 141
0.3724527198164027 1.1007100638755747 -0.1091585136858029 79 76 67
0.8638887637485907 1.1887851864041634 0.0285605724105062 119 117 118
2.2531010912748259 1.1696362497502129 -0.0366826114963555 121 121 121
1.7939148018428637 1.2741434931755433 0.7195237374472050 136 136 136
2.5917547662462330 1.0394170376919873 0.5641893468422560 249 250 254
2.4906627778999701 1.0003125036447413 0.8782786201923877 63 62 60
-0.8174090978506114 1.2777242586823929 1.9775319006842471 122 121 116
2.2151443620081297 1.1367887845206768 -0.8370311211828848 56 56 54
2.0814303091681179 0.5517698785250323 -0.9957744587078171 97 75 52
2.1331703014731076 1.1532799333218706 -1.0092107149367844 50 50 48
2.3564766439729836 -3.5083230226869540 -1.1633307159204831 102 93 84
2.0025924970032225 -0.9984049701638144 -0.8879638353132774 52 36 23
2.4100654267588513 1.1708586530029266 -0.1265858290849711 84 84 82
-0.8832922476890223 1.1834274346114209 0.7013013007623210 153 149 140
0.4266901199325389 0.3373316458448974 -0.8595643257387928 115 89 62
2.3899293182733437 1.1312879347745344 -0.7935999995566756 69 69 67
0.1662946038115205 1.2193179659350852 0.6445980570583575 114 110 101
1.1516245771578735 0.9465536198401243 3.8706353610870212 179 181 193
0.5132010899358538 1.1453202183623159 -0.5568232105951157 114 109 106
1.8664107341388927 -0.6235705385179650 -0.9278894510113197 119 93 66
-0.5060145301136690 1.3354727043496160 2.2068938436627876 113 106 98
0.1822702295868386 1.1510856628438479 -0.2123545946980900 95 95 93
2.5137336589853589 0.9471496578440907 -0.6609283279996043 27 25 26
1.1892852590298248 1.0735799900702387 -0.1663759799391720 99 99 101
2.0140677197873282 1.3588681525985897 1.4460549803186513 125 126 128
0.2379399343585176 1.1549669431167164 0.4004641191779174 109 109 107
0.0430746690842736 0.8720204722888564 0.3573804961029782 197 197 199
0.6150608392374864 1.1991272100002726 0.7938852418545640 125 122 113
1.0246848781722866 1.2258471196514242 1.4946575984445312 109 108 103
2.3268502616141977 1.0462974390754463 0.1385016003871713 99 99 99
1.4419051599203681 -0.0391301156343444 -0.9208663373464359 127 102 72
1.6093145207567348 1.2584953759496309 1.2211416586621189 126 127 122
0.1998924310061049 1.2500629310780003 1.3922242417835999 123 119 116
-0.3732355069385866 1.3819792116830862 1.8450367758240611 100 97 90
0.7486543754808723 1.2350696990966155 1.3636472625645271 181 181 183
-1.7665263043834876 0.4778901109649850 2.2560777627127746 254 242 218
1.8039265511764744 1.2048521216946735 0.0725008322532535 132 133 135
0.0319263116569775 1.4650673998607830 2.1989114734608379 90 87 78
0.7376182934819553 1.1966029134144416 1.3272902889015805 131 127 118
1.7075590257081135 -0.2032802905227606 -0.9947772054144297 112 90 66
3.0902570467012924 -0.4438461806507346 0.5316870261737978 28 27 32
-2.4931906599543652 -0.9558876959485342 1.0741631861151464 249 236 230
5.8184985953480268 9.9988823059650045 -7.7742933004516734 108 105 96
-0.4030532488136547 1.1795717637717287 0.1341594337651771 97 97 89
0.3101324465036035 11.5362618776090269 1.7075317778745902 73 73 73
2.6485835017418839 -1.1949105258079917 0.0235665687487185 6 3 0
0.2491947085629532 1.1414181568042454 0.5546444301464490 111 110 108
0.2087828204012113 1.0520334616720339 0.5976727741416922 123 124 119
1.8736138430069542 -0.5293073978064325 -0.9266479734848291 96 75 56
-0.8810987142087381 -0.7971411323287730 1.9932687555846487 38 24 15
2.5659428632208874 0.4076290359684794 -0.3074027910476210 46 43 34
0.6284652773083345 1.0836616621313468 -0.2727401973412403 108 107 105
0.7779967124176551 1.1993041752661404 0.7496937144292791 167 166 162
2.3259288511591949 -1.1594108259671851 2.9752646080306655 175 174 180
-0.8981702106865125 1.3212885360256184 2.9638795906094928 85 84 79
2.0816037020373419 1.2979373129860161 -0.1023983658542507 110 112 111
2.2201476299196958 -0.7103832007893190 -0.9438385718563391 76 59 43
-1.5356344788164671 3.7198997036402703 0.8031906895608250 140 140 140
-0.9162056619422813 0.1473023049466915 0.9663858197393455 135 119 104
2.0711765404432962 -1.2958859856154634 -0.0682818180809751 19 18 16
-0.1602854771017753 1.1263018753947920 -0.3543034627342643 76 76 74
0.6287738865797330 1.1055370860504063 -0.8727388671675211 161 138 124
-0.0254733328496447 1.2235206234136533 1.2879959307193847 87 82 76
0.1948225354514592 1.3530064393529000 1.1575172338186597 170 168 173
1.0138720475067591 3.6687649477524205 0.1776843861901946 126 126 126
0.8354871781615356 1.3985315683382669 1.8291444531125802 117 110 102
0.3937914171167214 1.1263449677363562 -0.2745844574093321 113 113 111
2.2749272982634912 1.1660569800251275 -0.8919034490098072 75 75 73
-1.7524466008936972 0.0277991709031609 0.3338638588110436 254 237 227
-0.6469832350553325 1.5890253650512580 3.3271115372628390 90 87 80
1.1821016429053839 1.1263647494686919 0.1848062790754904 112 112 112
0.6151958171236630 1.1704598649585598 -0.6105732826639997 137 118 104
2.3909766894969597 -0.7270991946206060 1.1308594544278883 101 90 86
1.0945349288919022 0.5496185202245980 -1.0043314245872432 120 97 66
0.3283521263065238 0.8368891619260496 -0.7319559104440753 128 106 82
1.1291136679786207 1.1815349436267513 0.1604575536222982 134 134 134
0.3321016385861849 1.2458928973487220 4.5601889118651595 11 6 3
-1.2160531477948540 2.2362859065970242 2.3650699469448639 117 117 107
0.4134574055117393 0.9695771507940264 4.5067494315729988 59 49 39
-0.9179900194648568 1.2782023381052834 1.9138919255655926 59 55 54
1.5062283031654242 1.2543710387966824 1.4465201114871580 133 133 131
1.4357213547139245 1.2127110641335743 1.5003255329734650 134 133 129
1.0938281132382919 1.0167021639250728 -0.1535306498294204 133 133 133
1.4086108259016212 0.1389456743299926 -0.7192821375339779 147 123 95
2.0626081730129053 1.1651826999501880 -0.5055800502028309 90 90 90
0.1501320071493197 0.5958445638504420 -0.8088065228091618 122 98 72
2.3446757474336137 1.2688731168032268 0.2153420263203438 75 77 76
0.0269998951088051 1.2711922060320517 1.6472328749514122 166 165 161
0.8332905266998931 -0.0028057425977922 -0.9012885683872366 149 126 108
0.5460103821633321 1.2224441670569823 0.7528302438261557 125 124 120
-3.2936575480159518 9.0447261257994391 1.9771442563767292 88 87 83
1.5523984982375005 1.2939240995489059 0.0384825153885651 130 130 130
2.1835486167611764 -0.9472203230998198 0.7445001007462101 17 12 8
-0.5991940537236997 1.2600424201226252 0.3680856224789087 94 93 88
1.2233367791239400 1.1787006654540573 0.1772424371583447 119 123 124
1.4693828461042597 1.3094791000492190 0.0874825202321102 141 143 142
2.0704685710066002 1.1696392695309754 -0.6126148193298064 78 78 76
0.4445158393122852 1.2912107952232443 -0.2671166912945404 82 83 77
0.8136379222266872 1.2386194189406903 1.3043458098196938 117 117 115
1.0683016835965318 1.3440351836565287 0.9056664175576734 172 173 175
2.0572134989381530 1.1135771747791685 -0.1490609270159343 110 112 111
-2.4817167022493649 5.8473427114990750 1.5997842042553787 132 132 132
0.1359832183612043 1.1661404493413527 -0.1564511208310398 114 114 112
0.3375812214521345 1.2815436720868603 1.6095221622634588 151 150 146
1.5300431548085476 1.3525519012827987 0.0374516278374304 130 131 133
0.8577931589906100 0.8266954901955520 -0.6418692886089211 168 147 128
0.4995417838444706 1.1499817812113404 -0.5920286990088339 118 100 86
2.5518637598072456 0.1741780262360267 -0.2713516148826093 77 76 71
2.4090250160435325 -0.8862271881804848 -0.7290052613393063 109 104 100
0.0740334244471906 1.3564984384617631 3.5047566086880604 64 64 62
1.8846569638455610 1.1483980979114712 -0.8551336065764703 94 90 87
0.1261278446711660 1.2115291266804737 -0.6194794288277151 75 71 62
0.6769527059276763 1.2157655273286889 2.1864795187097292 66 61 55
1.2936047831288948 1.1929950553230080 0.6226983081649583 173 174 169
-0.7641181398696131 1.2730600126235876 1.4692535468646069 91 90 86
1.0387543877377083 0.1504435840766358 -0.9295338908646463 141 120 93
1.2118110780403091 0.8004437506295566 1.6538880371090803 89 85 76
-3.6584387979696902 13.1868583305791400 -0.3626735287493961 119 119 111
1.6140762200535650 1.2664331036274286 0.1183927358775922 143 142 138
-0.7848791484164047 1.2082360779810184 0.9174499293939833 88 82 70
0.9099627703085292 -1.0440148848803943 -0.8837339608022498 58 45 29
0.2577625501391710 1.3162019569590144 2.6248946519962275 92 93 87
1.0202424711779949 1.1809714728272944 -0.5072386941124519 118 114 113
-0.2741772682511942 1.3038808367561074 2.7568949616592331 103 99 90
2.0593801810996335 -1.3093665995981816 -0.3250379467465101 108 107 105
2.4415244262717746 -1.2165954474388465 -0.6595786829256470 35 27 24
-0.2033001262416021 1.2828782539526737 -0.3179873809465730 130 131 133
2.5019618484350064 1.2333835322790505 -0.1860144964261477 103 102 98
2.4182053920275934 0.9438615413365293 -0.8665580801546832 160 163 172
1.5576317726810709 1.1493916695687738 -0.9456657575517032 57 56 54
0.5557900931129297 0.6018380891031363 -0.8868398801072007 101 109 120
2.1076767670732419 -1.4415088097971991 -0.0761299659814953 110 107 98
-0.9389819295668028 -1.0641288247707050 -0.5463290967142221 24 14 12
2.6100369448561818 -1.1300042021387391 0.9767009731502790 23 18 15
0.7328471783942837 -0.1659643827821144 -1.0377638845300499 85 67 47
0.5554682765284804 0.9757069065061782 -0.5731482377842491 120 97 81
1.5887144232956298 1.0284065657200905 2.0085332489502430 78 75 70
2.2450139322907869 1.1571284971197966 -0.3135313304227710 74 70 67
0.8959805916807730 1.4128022891261169 1.0934333667255645 161 157 154
0.4963271704283950 1.1717024815261186 0.7893972947680974 118 117 112
2.5835740122185959 1.1530442090834003 -0.2848366250762592 17 17 15
2.0524071966132356 1.2061616413019425 0.1446698934159189 139 141 140
1.2126645067841764 1.3516151871032271 0.8326925712648118 146 150 153
1.8380578546454325 1.0013079760970871 -1.0818852058039996 91 65 42
-0.6802273943587515 1.2611909127692877 0.5284162075507607 116 113 104
1.1379428071670463 1.2642472191099743 -0.0056617462310099 141 142 137
0.3286548829783728 1.1618235757340654 0.1337254833982642 135 134 130
-0.4687565755619870 1.1178056383850894 1.1282350040415294 115 111 102
2.4369350264280691 1.0327513966899524 -0.7019764110153480 11 11 9
1.2027404587327828 1.2437175773727855 0.8031433647012158 131 129 130
-0.2506662402936399 1.1245754059402810 0.4752965569026829 98 97 92
-0.0175375777283279 0.3337364656928056 4.6514517849051185 43 35 33
2.4883263447809445 -0.9871355619862452 -0.9320480427067196 97 92 89
-0.8314500265322216 1.2327882287644505 1.2361879561210585 99 91 89
0.9249184049734469 1.1639092992363860 0.2891643557286596 98 95 88
2.4472062416480438 0.1680684978779563 -0.7772653347076184 81 61 37
-0.2615508725004728 1.3521357002894112 3.0082433421354442 81 82 77
2.4599406362150837 -1.1055280457623806 0.3059638234650687 46 36 34
1.5733583454389655 1.1851731529245535 0.3649762799532376 138 142 143
0.0106431974446173 1.2706205904378516 1.2324253556831055 118 115 110
1.1992875824458915 0.8794476583926228 2.3608552875393038 170 169 183
0.8825162450505302 1.2660226153294849 1.3489955564867959 198 199 203
-1.0287153431690683 -0.3656548859484459 3.4773846143890261 70 47 31
2.3473961837676751 0.9682593607852694 -0.6726398653858805 80 78 79
-0.0878903176440025 1.0502479160384504 -0.3980713050960341 87 84 79
0.8447640732820689 1.2318887849912790 0.2232498283768846 127 127 127
-1.0489780785771528 1.6453917710118595 4.1540027216374664 129 125 126
2.6035925575931960 1.0698600591259833 -0.2583904152065126 82 81 79
2.5008557511186420 10.4185377639350136 -3.7264395973134139 100 101 96
1.1598644421560809 0.8985823725285711 -0.7875127588144577 172 145 126
1.6187474223911547 1.1829266858147329 0.4079546508790749 131 132 134
0.5321609901891589 1.0340698699217907 3.0845811538798729 255 255 253
1.1153227438508360 1.2866487347538529 0.9584753753484561 175 176 178
1.7831436216823473 1.2225626279662187 0.8462903210202661 136 138 137
1.3336819997775586 1.2656387787842798 1.0981199117986171 177 181 184
1.1181600578996986 1.2154776134831173 1.0608918087015531 170 170 170
0.6995804245511971 1.2279665573945391 1.6744468036517324 106 106 98
-7.0038744093282874 -0.6574887893727612 3.3650883804484066 255 247 238
2.0395465151687011 0.9752387710481610 -1.0357598838851634 117 92 72
0.2137784403468066 1.1519044542083874 -0.0699207398180711 80 77 68
2.7598135734736955 0.4349677046286765 4.5084550641823142 92 92 94
0.6528934312576525 1.0127232513854212 2.3219920474361353 38 37 42
-0.8659302563838674 1.2743529395823385 2.6443674883056727 116 112 103
-1.1708892335920806 1.1807764803181897 0.7479327773101726 212 213 218
-5.6612607478694397 0.4184843197542878 4.9802973274198852 241 237 238
2.0215355901884884 1.2468661731911450 1.1671483388838308 139 141 140
-0.5289505247489844 1.2617031232394245 1.5084750646184271 79 75 66
2.5622951512912171 0.3034781940876932 0.0233662125216093 187 191 174
0.2128488298672603 1.2106493187702405 0.1950535224243631 143 142 138
2.3214929136724081 1.1395528980690024 -0.8194414815446490 63 63 61
2.4746518412425380 1.1594005705398400 -0.0688117702271172 111 111 111
0.2805511394906881 1.3552176635120550 3.4769013258238695 69 69 67
0.9023109304688897 1.3039940994938783 1.5564375865844420 137 133 124
1.1842728836921801 1.1571834899856301 0.4179245319891423 154 155 157
-0.5113414452564841 1.1272055954463986 0.4699655528912912 143 140 135
1.1469438820286699 1.1266596995257245 -0.5726908025355535 92 78 67
2.1308389743651799 1.2704579152715285 0.7957502153006736 100 99 95
1.0229892527147602 1.2622956685068176 1.0079350463311476 174 173 169
-0.8812179609055585 0.8059783139709261 2.4522327087184479 211 184 154
1.3525051464811539 0.9155654316381802 -0.6110847229424987 194 181 175
0.9994120067287009 1.1330475595889726 -0.3075535359913651 138 138 140
1.6024050256761286 1.0419630242224764 -0.9429538935106937 66 65 63
1.4995048123937025 1.2985974319686526 0.7119038864889522 150 149 145
1.5508710098428553 1.1409089675058075 -0.7263605667286307 85 85 83
-0.4115444315144842 -0.4535708299984397 1.7165621860522684 46 28 18
2.0863926025704354 1.2485118907610309 -0.0428977240240361 121 123 122
1.4385169015028954 1.0376102747441351 -0.6377910608602360 113 95 83
2.0178440070399577 0.3388433642024838 -0.9845339062251919 119 97 74
2.0554364754581282 1.1898862127207728 -0.0187902728055058 80 82 81
-1.7780145302660606 1.1498676889508543 0.4502962636698875 193 194 196
0.4303999679910052 1.3515021066649000 4.0890451813451287 25 25 23
0.1916513055740395 1.1999452916625719 0.1723671503213049 88 84 75
1.2684327987742343 1.2568940631838328 -0.6585932266451225 124 113 111
1.1845425436883879 1.2133125944090370 0.3303025448978949 126 125 121
0.0584384311724418 -0.6800095190794682 2.6952931515643099 77 68 69
1.0947429086665681 -1.0215964006534068 -0.9250492150417475 97 78 63
0.6586426158259856 1.2386118728010145 0.6066946388255666 140 139 137
0.1966207094426857 1.2895444505436853 2.0908977403744315 106 105 100
0.0929950726031224 0.8438857068318836 -0.9543178738614152 122 101 72
2.4614361285684585 1.1216188004044163 -0.0384201111722184 102 101 99
1.2866869478676548 1.2048998026418183 1.3134414031078741 162 161 157
1.3522495381651727 1.1442204922975259 -0.5514110576781909 95 93 94
1.2145401438358756 1.2499375916035398 0.7038199044972496 170 170 172
-0.1269922065898136 1.1172368467692677 -0.0882046661355669 120 120 118
1.0344302040152136 1.2070993661124960 -0.4264970347686001 112 112 112
2.3855369115883711 0.8036815245589360 -0.6464931189894879 46 46 44
0.4289760024657184 1.1871232246106744 0.3070349798901079 121 120 116
-0.8704840683028527 1.2012021983420125 1.0376024749690502 52 52 52
0.8227268495945925 0.7585679678524599 1.8656949633680961 237 231 217
1.1728448107493856 1.1744105761470909 -0.5070454776211974 121 120 116
0.6097070689195191 1.1918283903185596 -0.0396747963342772 144 144 146
2.5191081742734944 -1.0172748409996508 -0.4492622031773345 23 22 18
-0.8169537236580511 1.2509602805333739 0.8795038065765568 101 100 96
0.3441495290407672 -1.9689639761679580 -1.9468312471160103 73 55 35
1.4983413815091042 1.1730869419939856 -0.6466140469575665 81 79 80
0.0346169933164577 1.3211421716996090 0.7256237992171850 179 179 181
2.9045456455345522 0.3222179709154511 0.3487423079482238 58 57 63
2.5308343006051834 1.1641688352400217 -0.1407661364614754 41 42 37
2.3864987827842978 1.2280919356119475 1.6930631533128842 27 26 24
0.5485383053446354 0.6339530416059939 -0.9140715866571671 64 70 86
2.2766154870936717 -0.6678770842703171 -1.0671971253556962 87 68 51
-0.6155565231288000 1.2393632051566370 0.3211453504688274 100 99 94
2.5996624334044998 -0.9628688415059534 1.0400893912013356 108 104 101
2.4779485752860100 -1.1111171108451448 -0.5635056830747405 30 29 25
-1.0335311685651298 1.3615475171488038 2.4430833383066299 128 119 110
0.6206721695029873 0.8324729843125572 2.2312498949851163 211 206 200
-0.3540350133345534 1.2671867341127789 1.6828516716765289 145 144 142
2.0195223614630300 1.1864231577796731 0.3766537685259502 103 104 106
1.5782794838208041 1.4743093671131031 -0.1976669410967100 75 75 73
0.1249367396583387 1.3118351262441486 1.4406878338692664 166 163 158
2.5119169449211012 -1.0801577432654925 -0.0403149067251230 39 38 34
0.0937769751994138 0.9963989188848056 -0.6139370875004124 33 19 10
-2.1205646505785993 0.9867151282278057 3.4211941550367717 94 73 54
1.8512861475385443 1.2466557769748439 0.6753299708851146 132 132 132
0.5890187429518963 1.3286272689671497 2.4995264880622958 116 115 111
1.6599073670634807 1.2094360927845409 -0.7982225222015971 59 60 62
2.4240155110117234 1.0897802738285443 -0.7188191401932913 19 18 14
-0.1446970664322387 1.1620722132878356 -0.1964712413078803 72 71 67
0.6988802921017208 1.1553217037522858 -0.4874769573145362 100 96 93
0.4200666437634814 1.2173264466187903 -0.1372290690947820 123 123 125
1.2177072304578014 1.0879852994199013 -0.3551790088289139 96 96 98
-0.4292422595323399 1.2534549862778068 1.2302036687602200 135 134 130
