ply
format ascii 1.0
element vertex 701
property double x
property double y
property double z
property uchar red
property uchar green
property uchar blue
end_header
17.6929114251564172 0.2916449868764828 -4.8815723728729061 152 147 144
4.4761299622439825 -3.0034916443082076 6.8745608843937651 53 31 10
2.9673713277345857 1.1795086602713187 2.9498864531281348 115 83 42
13.3432648666331648 1.8764906953010685 4.2312922739237440 66 74 77
3.0390648214006508 1.1847787784825616 2.8865379317387871 105 78 33
5.2464641732728277 1.1910957733910175 6.1002100781708704 44 10 1
4.7663332128918858 2.2637028079581585 3.5419141362492574 121 80 36
10.8077022404716860 1.7155292775817141 2.7350935581148264 38 21 11
9.4925233203086634 2.0461249725996127 -3.7613681416471079 94 85 78
1.1914780068956792 2.9633581536161837 1.1740866881173075 164 141 99
12.7873790760443722 1.6254938735554068 -0.8988352017730149 185 185 195
5.3545249714500258 1.1597930178858931 6.0408986814370467 41 11 1
4.3516736496690118 0.8263404106452039 6.4831243567790935 174 175 180
0.8583794107661352 -1.7366440988150487 -1.7995569651575949 90 53 24
12.6969775160375491 1.6355269646559507 1.7067414592328849 135 137 149
9.8493841812726401 -2.9150535008704495 0.8811910498986643 83 68 49
15.1628311269126339 -0.5442188442141238 4.7640643376206242 206 217 211
8.1882376810076387 0.8531795058338650 -0.2990709706909289 110 96 87
9.8513682452437870 1.6706759181964168 2.9020395289937673 31 17 8
6.2797727239094572 -2.8748122944544248 5.6461417386966435 61 49 35
-0.8724899351246466 -1.5597448378498591 -5.8592824858883903 60 56 71
11.2215059306085365 2.4617073398631422 5.0522465951891080 99 101 96
-0.7027217420926785 -1.6166380618312768 -1.9185560472149212 156 141 148
7.3438992564459697 1.6970204617628253 -0.0276469663723798 68 52 39
8.0812026888552548 0.9319132775094053 -0.4369782711133349 93 80 64
-1.5040173538790313 2.3816651188170992 6.1336224786730797 152 126 77
4.0020411170375718 2.4211848328457348 1.1820207430233451 110 77 34
-0.3719177200911820 0.6612735241909184 3.4239873208107681 254 250 238
12.1663969028892822 2.0929214677947163 -0.9628246888758085 87 79 77
-0.1467313078162061 2.3464946551494501 -1.2847267594043033 180 149 121
12.7160362637117554 1.5857825980225631 2.1805981554187714 139 134 130
5.0214799400960359 -2.6272062815604724 -0.6443611403896599 134 146 160
-1.6109654136632796 -1.9967100705883785 -4.1591917145143285 21 10 14
-0.8313141760751923 -0.9128606638615786 1.1414455590330168 77 40 11
2.3668160128325209 -2.8338829556273599 -2.8832611131937038 129 107 86
10.5424597868398173 1.9722873533710701 0.3129029176159978 87 78 61
-1.4172792477145664 -1.2616445953000124 6.0742454536248998 243 222 175
10.7741049290812327 -2.4248780753946293 -4.5799721191544123 174 173 171
8.4376708447605537 2.0427135833964001 3.4929131928708563 180 149 103
6.4077770659064850 -2.5093270638627154 4.0977445079083044 145 143 154
-0.9938358099576645 0.8317303609124180 1.1616047326581493 158 106 22
8.8166091505443038 2.7636239701287937 0.8012805937699681 102 106 109
16.6199087351651329 1.8276402291046643 0.2712002197209528 142 129 113
8.5137789409791278 1.3197349809266483 3.2650908394864544 134 117 109
3.6295538415635442 1.9562915432382497 1.5298292688682300 28 18 6
10.7358462297317274 1.8676498614736941 2.5977987741534561 61 53 42
-1.3352906866948218 0.4385324436777362 -0.5798993881086262 119 91 69
8.5538460327473462 0.8513098835708618 -0.5381291679231700 65 48 38
2.9365659243042588 0.2049690579844789 2.1733746695271892 56 59 64
8.5104735359904886 1.0316436764483108 4.1394852422074715 155 140 135
12.9954652828110984 1.3724025246605052 -0.6354379827996021 159 157 162
0.8258289183745923 -2.1382518615072947 -1.7711589139382822 136 92 57
9.3901056636931770 -2.5268657739838356 5.5630858071772868 70 43 22
11.3143333660232344 -2.9895601035423169 0.4246608487820979 104 91 74
2.5876322764218274 1.1231853122247848 2.5158280815472667 79 67 51
3.9050800858450767 2.6590610068599299 1.1946200690539839 70 48 25
10.0131650988573782 -2.8499683830593425 1.8257430713966301 112 97 78
0.8748696332046615 2.6259301829580646 -1.6606549612125936 149 110 69
15.3342418132406202 2.2886672481061230 0.6750424430416627 112 104 85
5.8786000790597361 1.6975113327113329 -1.2164655341907351 125 121 109
1.3389108950791009 2.0075231272041845 2.3934879230791051 216 179 109
2.3389239718016506 -2.9964764745797177 1.4947228902686067 70 40 16
-1.1007026386733687 2.6496134722618958 0.3092912542218071 118 84 39
-0.8837947659360095 2.0334206350111508 -1.6751572654148579 135 92 49
8.2899333285787939 1.2968890639999475 3.8661429951267494 87 69 55
11.5396692943136845 0.1582342545508676 4.6360325738234982 45 65 63
-1.1357660065692001 2.2721814983391111 -3.1690034543594310 134 108 93
10.7402306320216123 1.6734504560208592 1.7874515645773781 155 118 65
-1.3663905448892153 0.3123243909461677 -0.5950311267891445 106 78 54
15.9510345664578761 2.3551428826773133 0.7388700625539256 87 80 62
3.2522411501964865 1.4067049213790923 1.6426221485245702 32 20 0
-0.4853479776713435 1.2801299433250888 4.7855415610727325 192 169 125
10.0431252708301813 0.9421369038182916 3.7564156940043798 87 75 63
-1.1523642267202847 -0.2009384219356173 0.1761229141966740 103 76 47
4.8894063469091602 1.7480556742052784 6.5683882236852664 95 67 20
1.5527410252452045 0.0681804430752590 -1.8290286185100340 145 129 116
12.4401760336282230 2.1642619596705948 5.2412983866146661 59 59 51
-0.6357720174370317 2.6197168736652414 1.5597965074859295 108 49 0
5.5792062946661991 -3.3210386584824829 0.0070879275491869 131 120 116
16.3147168794911614 -3.7454854147323315 -5.3154289889627888 125 106 89
-1.3077393126390058 1.0616032005454410 -2.1082936585099690 74 51 33
-0.3145558137287276 2.2733644152977699 -2.8070083881328500 154 116 79
7.7577255067302406 2.4993154591210112 1.2623292999484017 99 90 75
16.6787799670343162 -1.8277164675100175 -0.7189262342982201 187 183 174
12.5753487350072017 2.3934005757811367 2.7910907790855228 108 100 81
10.4090119754963073 -1.9493575754943551 4.7494231724460088 105 97 86
5.8126843621500921 1.8036577168057508 4.6138397544388940 51 35 22
2.0527693021688496 0.0379122825861409 -1.9436846396459884 131 108 92
13.1493381232866842 -3.3183372714819606 4.8704726153462392 25 19 7
1.9431760961985181 -0.1434290834793722 -1.8964643249408850 121 123 109
6.7242041283605056 2.3788357213868538 6.0337878310953839 150 138 124
10.8211278531538042 1.2440028662618856 2.7254682678328748 102 81 76
8.5709188685116082 0.8059157487972993 -0.4616245903496973 153 142 138
-1.3574472604751870 -0.9448380766947687 -4.8216326347677212 165 180 203
12.4476021475708407 2.3509624651585175 1.5887664926543694 134 124 112
5.7500899681604807 -1.7498085022311081 0.7352847301305528 95 53 15
11.0399235273353469 1.9262200160050380 2.8581460352646242 28 16 0
4.6773878210956008 2.1642646486606676 3.3155725955925957 94 71 27
0.6027794382227939 -0.9064693530763389 -2.0203545844482815 20 6 5
16.0342248145552553 -2.4809857420177619 1.6639199678735221 112 99 83
9.7760964824935108 0.9541755548799099 3.3496594235893080 101 82 75
1.8688903264937065 2.5289038853537855 1.4673793189176521 127 102 80
9.5002715990832520 1.3654022074443772 -0.7952483561908409 77 65 51
-1.2365990383401269 2.5074532544575914 -0.7114527521053158 133 102 45
-7.3147171093884387 -15.0690732974406281 -17.2218382384650042 97 81 66
3.9205295281913264 1.2179691287626349 1.3357138951706224 87 53 16
10.9092210731087054 2.3144953682869005 4.3109259138443639 79 73 59
1.6840841571215244 -2.9129776846071782 -2.4449808431363245 107 86 69
10.9151632279198285 2.0771792968405771 3.6176297156916331 90 82 69
5.2412110124545563 -3.6985944577369145 -2.5174553978396159 116 113 104
21.5444952042776094 -2.5576359595280440 -3.3046711134108833 177 174 169
10.9872279405689497 -3.0236530351270958 1.7607894030040880 100 79 50
7.6217272856279932 2.2742912521057748 -0.2771209063972097 50 41 24
4.4000360841979029 1.5739943347330332 3.7950517608455363 76 46 38
12.7167212305487958 1.8344520127311787 1.7817169526733261 133 129 128
-0.5943396395293818 2.7128672260122237 3.0913000738924246 236 189 117
15.5709747864240260 1.2116864630874209 -1.3469635646015694 197 194 205
1.8431548608895856 -0.6558692614092725 0.8856750682704659 128 91 72
7.6952813894782777 -4.9483903896576367 7.8152027315306309 125 129 138
6.5343602531618226 1.1208059592956057 -2.4572184855874606 73 41 42
3.5108428018512723 2.3417671704464311 4.1896270479636106 67 37 27
8.2341861737041793 2.4802783827296784 0.7185055404767910 99 89 80
16.8921104331859055 0.9715956234963173 -0.0103787551281209 151 113 64
9.1711845120737703 -4.1119691619299443 6.3751327912323381 55 27 3
12.2120694748852063 2.5368029594338486 -0.6373580250484999 100 93 75
4.7285213099053287 -3.8635121178596741 -3.7943102445799970 118 114 103
9.5490721782414560 2.1591767349118567 -0.6599661839649059 72 62 50
9.8656526630448163 0.9857603474694415 4.2827126618534148 53 43 31
5.2046345176458813 -1.0145670612422057 2.8890926394086223 77 34 0
1.3730006933353121 -1.7657679577309719 2.6730021890704956 146 99 29
-1.1020016625091449 -2.2177007223720797 -1.3230291063229025 65 30 0
5.9184188857530522 -1.9511825879831504 3.3727786633599033 120 120 110
-1.4953711760638253 0.1822480990122423 6.2646480343021649 237 220 176
10.4857138230820706 1.8756712263306394 1.0062111379281347 98 75 34
1.6073512753605304 -0.1580547421170151 -1.8397417632611208 142 139 130
9.9973469234908627 -2.5883998385554454 1.5420121340005672 94 79 56
-1.2042450260041957 -1.4685839493900792 -1.5507853994460541 121 89 66
8.2218895838247494 1.3801613442457992 -2.7467990180918367 149 144 150
10.9468718403772307 0.8936499583111449 3.4308897737588899 103 87 72
-1.0620716987799390 -2.2263339139855089 1.7415284471934471 75 33 9
-1.0506473865080530 0.8332085140330071 0.8954516198187226 149 97 22
7.4900670494814676 2.2732034762240017 -0.0646635115794154 106 90 74
11.1659694198567596 -0.4817992329180035 2.9251728491057523 44 66 64
-1.2490323484697778 -0.5524834623851801 -2.0356023369329503 102 75 48
8.1999676014890746 1.1245217948559900 -3.3398640238875816 141 139 140
14.8432253433236809 -2.2709097518776669 4.4728045952839866 171 173 172
13.2842497533522135 1.0953706056022199 3.8993324397109355 181 185 197
6.5178215290360368 0.7275557182581133 -2.5370166768511071 150 147 154
6.1677762198110342 1.7075523012593372 5.2896630158056626 67 53 40
8.0739006069158723 1.0911867945630636 4.2324906088700471 160 146 143
2.3955827108643324 2.3188984747222219 -1.9351907307922886 164 138 125
10.4304718075740972 2.4618714335628233 5.1305447457096944 104 105 100
1.0804799239086080 -2.1949897119515906 1.5800128008603747 108 74 47
9.9557317636343754 1.8597913616234745 -0.5370989418385393 41 25 9
11.6102070388462515 -2.7156688188241622 1.4227679273062661 127 114 98
1.0504663656379831 -2.0535370535600497 -1.3776393385486454 62 26 0
3.6933522996110031 2.0006576028358061 -2.0432119528849961 81 69 57
10.0182980080211017 1.7457977692895903 -0.3789093450524847 41 25 9
-0.7906190683220501 2.8879609559872605 5.3215077842749965 134 106 67
-1.2562596565430832 -1.4085465420821539 -1.9441878648314530 203 177 160
7.9597540415129204 2.0524064329066700 2.6443271263937147 42 15 0
0.9923372564592248 12.2193920739967510 -2.1155338756773689 75 76 70
16.8804472580705180 0.7598355544312685 -1.0641665523776835 98 77 46
-1.7425603476843916 0.7440896549915385 -1.8995066151849473 132 91 39
0.9268653015190712 -2.0180373681104413 -1.7014348094838487 76 42 5
12.9188929575766398 0.5702564910232243 0.1960106929257405 75 66 51
8.6306136796391346 -2.2608373387274678 5.9637873596226401 130 121 114
15.7960250495273797 1.4882559562622921 0.9033663109700645 126 121 125
13.2677203361552589 2.1924508342969089 3.2328611753000898 66 64 75
8.1541670812808231 2.4260297273400879 0.7764052835506243 48 31 21
12.8200792524490748 1.3338815652544069 1.8794994534035658 166 161 165
15.9591102011511214 0.6555440915345290 -3.7917417279934185 36 36 34
1.3429542401759094 2.3092760989063872 -0.4556647489743055 104 98 74
3.0884131560795782 0.7805415227134020 2.5654943603035996 22 18 15
15.3324690978774338 1.5020274673790626 -1.2105640924150924 137 133 134
16.6904587444608588 1.2098812427952788 0.5250836858105384 27 18 13
0.8262882317375183 -1.8512221339597765 -1.6590818469999387 87 51 19
12.9671599790461087 1.2882476464365622 -0.7222364543507576 164 162 173
5.4288660989692668 -5.6257292179428893 9.0641677142616466 164 164 174
13.3237764520172828 1.8732138675071774 1.3389502096100083 60 53 45
11.4257726011333300 -1.7031723145886810 5.3653096608609729 31 61 63
-0.9456152829386462 1.4435136410550184 1.2426185676883033 150 105 37
8.1407119559643082 -2.3578571750368376 -2.8636438304128076 73 42 11
-0.7814012743850791 -1.6782021736937767 3.0288679173532080 255 240 172
2.3567490680980079 -2.3352474642600134 0.9852235911637212 51 26 4
3.7483250009384861 1.8026204944738682 0.1105475928036917 117 104 85
8.9872284128414606 8.4643557414739359 -9.4424176178903423 94 81 73
8.4049372789982666 0.7760856582596997 -0.9086779171207950 52 39 31
7.8066025990507102 0.7565387102025666 -0.2327485924710710 104 94 85
2.3142373106530525 2.2505915849140727 1.2560767467002005 120 93 72
9.0004224563704174 2.0015227820427577 3.4394679847494851 141 124 114
-0.4227525041484154 1.0366782871008520 5.7161932237606203 208 188 153
12.2438010970823647 2.4594679995365905 -0.3064986438731330 105 96 81
8.5084880299338437 1.3346884725750814 0.4818479647083724 93 79 66
10.5635393680662091 2.5633797528211288 1.9085302322268538 46 32 19
6.1244537709253910 1.4867377691451109 4.8664865321617405 78 66 50
-0.8013076602662845 0.4600093558819860 1.5299089825374204 106 63 21
-1.7941237408431574 -3.7377366244056938 -2.8271485102798835 97 57 22
16.3211214186478450 2.2346176472084371 1.0508358913325970 60 52 41
9.9411697686516245 7.6498428152274460 0.9875722528284817 81 69 57
15.0515255080467938 1.2921850680889280 1.0362191221067267 132 131 136
15.3439453034905195 1.6784336094373316 0.9375662933822339 26 19 27
8.1930718186001084 1.2840587544422473 3.6456536588917845 64 45 39
5.7415400221584028 -2.7449544076687507 -2.4639954389790066 106 85 66
10.4818580861316857 -3.1399663843070593 5.4948307671142738 30 9 6
4.3467973889978424 -6.1149388315356061 8.2111750892163080 75 54 33
1.5333939624537554 0.0341926776872165 -1.7663745542769713 91 81 71
10.9935061339489497 1.3119097096685208 2.8260955707210025 92 76 61
2.6053706660780667 1.0203635254046055 1.2807546249309167 65 53 29
9.2381176920812909 2.6695616300897997 0.8373851154480418 47 35 23
-1.2424968130043901 0.4239744371143147 -0.9399568812914987 126 108 86
10.0209843256961921 0.8157264116401031 -0.3757909536800965 76 62 53
9.4767265633103630 0.7644780817417909 3.9828280654858794 139 123 110
9.7856806418214326 -2.5910416083252383 5.6124588998091554 68 50 46
9.4291065575993933 1.8899568203569588 3.1581837271585598 50 20 10
-1.1723743112177643 2.5249303434915022 -1.0170086716704174 118 81 37
7.5728608994754438 2.5284544215354474 1.7336097217623623 126 123 118
3.3075701354094136 0.5919524261275309 2.1815503866013395 137 125 99
11.4361984373676080 2.3180253036373140 -2.0794457583070711 130 116 103
3.3116467947819772 0.8869889220023645 1.9327154542827782 109 77 30
11.9204337794231261 -2.9547557833099645 5.1130952870784396 21 14 4
8.1020077867927043 1.2607296939627315 -0.0421977178527215 89 75 64
14.1256181672151389 0.8300547982447888 4.2309142194804803 61 88 81
11.4784121199868050 -2.6253514972588650 5.0786984652106613 40 51 43
16.6516793026260608 -1.2808004189858175 -0.3834072675010930 153 156 103
11.0387607372578547 2.5738133575253772 -1.1456421826848460 120 132 122
7.6457416069336341 51.5016535316020949 -1.6258352760258610 78 74 71
6.6766817001469949 2.4997761164359162 -2.4924736769269500 119 106 90
13.3462533648146824 1.8026246287353360 4.1884088052453832 93 100 106
7.5968652655353646 2.1357846934738340 2.5207916326876321 44 13 0
12.6067031495329491 1.5400496875722745 -0.7093499909749386 169 167 178
7.4073946480341357 1.8502949188376705 0.3891481772537305 44 27 11
11.4734738722779337 2.2574208332468468 5.1913022674442857 24 43 37
3.2436055565020157 1.0331689448234880 2.7822858456230337 117 83 48
4.2427166243578984 1.4632646545596979 1.9630661666795335 72 63 54
3.0057288120142882 -0.2376179547259041 1.9039163047051670 22 30 41
2.9142150366997805 0.8329202550898358 2.2580592766815997 64 59 55
4.6072936646451836 1.1203414210976448 4.4493765958164078 67 28 0
12.6749535981948807 0.3505433675459786 4.8552831509259846 51 67 64
10.0762986588416510 -2.6902907581747466 5.4653974485548451 22 23 17
-0.8538926135698199 2.7266352046592082 -1.5305515561436858 175 147 133
11.5642633857343320 -2.7347051163379748 5.6055025046631215 32 47 50
7.9973838719903476 1.6962260355057428 -2.2205860508634632 121 91 67
2.8243836415023562 1.1562515319719984 1.4012121289554005 82 68 42
12.9908636219445253 -2.8273619860305947 -3.5544879213165546 109 99 89
2.1131963226519117 -0.0704735516311669 -1.9103812659681385 136 110 123
9.9342887420509332 0.9218405254979012 3.6649492422446186 119 105 96
-0.8767898235371591 -2.1063719484829897 1.7545981054672601 53 27 4
5.9487158525824437 1.3498437492860142 6.6483917677405122 120 116 117
13.3061501400630888 1.4343142998254230 1.4556106337723420 185 184 190
15.8828573743922146 1.4546705726758014 -1.0895030326750259 32 19 36
7.1540620698150104 2.1434587525876485 -0.3849156855545454 49 40 25
10.4700588535285366 2.4235053524801691 -0.2055151415441408 111 99 83
2.7802264237196148 1.0435542659947841 1.4160083941217663 110 78 19
1.7080438160609779 -2.5873861679662471 -2.0903698976633907 73 47 20
-1.1668971177697420 1.3983874069414979 4.3350658584453612 166 133 62
8.6316107298242883 1.4604103616441508 -1.2082281225993903 107 97 85
-1.4559587781835177 -2.4848496005152563 -1.0930995955220204 56 24 3
0.4652972206182045 2.4829187543008922 -1.5537222343924917 133 113 104
4.9558434084163396 0.9345723404653317 5.5523211305853213 139 112 67
8.3945409717939299 1.0759101966879263 3.1480017976990315 133 124 119
10.6717188935846927 -0.0490073932289511 1.0505755599178861 89 75 62
7.1904928029649753 1.6144321553981840 -2.5620782689852839 64 44 33
7.2092736137655686 2.0758531997493468 0.3390556337295826 106 96 86
11.9395684883544195 3.0970175792254278 3.3756679008160568 106 99 80
2.3818735041935710 2.1164857944535584 1.4659815160237986 114 101 85
10.3402356354058700 1.6134342710861371 -0.1453306792170327 156 143 127
1.2189849264220378 2.3520352413233954 -1.3849197640999209 163 128 90
11.6530460248174901 1.5333058695056754 5.0687927430742876 35 62 53
1.7892102288338423 -2.6313267597860230 -1.6550534816640079 108 80 56
8.9699445851750337 1.1454290662682969 0.0576900598567317 81 64 56
15.0987469532287246 0.9929601946623026 -0.0206651884600499 119 106 90
9.8573962412409308 2.2870307707364961 -0.1760877450686876 13 0 0
2.7605031394461386 1.1231264655310482 1.2925088843440455 122 122 96
3.2168105514579262 1.3118912588743274 0.5990316203348167 136 101 43
4.3914370049455833 -2.9349388246016836 6.2829098529119252 101 85 70
1.3129478745966101 -2.2444379043457876 -1.7997926821559624 70 46 22
10.3861562080087317 1.1786705600978404 2.9473958250217596 106 90 77
11.2788768467204079 -0.1782722194801902 4.4646640627976346 155 143 129
4.9938562740618835 1.4167311029779464 4.6498519595534971 70 51 37
7.1103154326560523 0.8625455897845290 -0.1562257379733898 59 52 44
2.3301352749629944 -1.3594222510269869 0.2077287074991737 107 79 55
11.6384587071415648 2.2777199802920980 -3.6844710561417933 129 120 105
8.0789641285160751 1.1856440693994912 3.5402983492315738 128 96 85
1.5201161104494960 -0.1246851989523983 1.4718962982398947 130 123 115
16.8128023258991490 -2.7288026096816242 -3.8758729708313306 123 109 100
3.9649163633654907 2.0470331266292461 1.0498301288519742 124 113 95
15.3120857757836273 1.1550986573643696 -4.0850021757781922 113 110 105
8.8960554911900438 0.6103704559498153 4.3756043324294653 175 162 156
-0.8622348731568737 -0.5437113903041407 -0.3348187996476749 74 51 35
4.3474429587583865 1.0050051950459817 4.6539549493576278 160 130 78
8.7770151548301847 1.5806464104226776 0.5487260456632087 27 12 5
7.4999369088726047 2.4841449769508230 -0.1073529778290703 51 39 25
8.8004508598443856 1.7056333049321024 1.1803572999777083 183 141 67
0.9046054886547156 2.6863920190785811 -1.7114580010810505 105 75 25
7.5367524904233543 -1.4408691256397110 -0.9040787529065464 130 113 95
12.7486341650036117 1.7605407270739879 -0.7084709940646909 135 133 138
12.5677277085277677 1.4899479350472031 -3.6006395489681129 79 69 77
5.5512175246727891 2.4017045153965961 -2.6837439332271797 107 87 76
11.0864288587749407 -3.0478648989648227 5.1026807222941750 69 47 24
0.4741949402798059 9.2550829508554937 1.5247517527723278 135 125 113
0.4296852563953597 2.6222346594638659 2.7108972133800138 66 26 0
9.4834423577697358 1.1459305414221004 3.6143974180037164 113 108 112
10.4877272051906605 0.5495896696659094 4.1176468929961159 130 117 108
16.1703106522727929 0.1756001040153935 2.5893139843244630 45 45 53
11.8273075129328618 1.9558434593980376 -2.5669233624754915 21 19 22
4.1977794328199023 1.3311171953051806 1.9354331243381027 105 96 87
9.2951749416833209 -2.2901169345999230 5.8187731084069805 119 106 90
16.1672027499865045 1.4604457177314167 0.7121181125817391 21 16 23
1.5489087000848558 3.2821722842285994 1.9061661135921213 94 69 47
9.3974310505240854 0.9702233583860588 -0.9549815554549950 77 61 46
-1.4649438868476226 -0.6250023160405385 -0.6020399211833407 94 72 51
11.6050064589405793 -5.5212428220218071 5.0155804867010403 86 78 65
5.0141646570769449 2.0024479061083671 3.3661624087929711 101 72 32
4.6870999579059776 2.7537979127717107 9.1423449221414010 68 42 25
13.6682039685149412 2.1317997374725910 0.9959636830347178 83 74 59
-1.3956980969566277 0.1210745926430834 -0.5814008340829890 104 79 59
9.8502741611602023 2.1559119244748262 1.4395311831480331 102 74 50
-1.0640958622356136 3.1812613693943050 1.2366342794534866 159 127 86
-0.8018631864041686 -2.5406931326534976 1.4408771376323957 52 24 2
6.6820038689382795 -1.7398227018959602 -1.5773055556573792 137 121 106
-1.4179538242220004 -1.3988093275314730 -2.1184434154165106 82 48 23
1.2473098599316419 2.5950357094060870 0.4402316457111692 164 129 87
13.2999882612263054 1.9895633151296563 1.2737822234130707 110 104 88
-1.0620993700600825 2.7605933897239563 -2.0182826639209157 44 43 39
3.8746468759177279 2.2597869881709824 1.8230919519776663 73 64 49
15.8394555246466187 1.3695598165278029 -1.2119088395469706 161 157 156
6.2936406409089320 2.6197537102421689 5.9637979809273816 142 132 122
13.0313254150101585 1.1750815559144729 2.6522564093195764 165 165 167
-1.0099848716395265 2.7471247692982832 -3.9642265293021142 97 53 88
13.0251530897469507 2.3397274065037670 -5.8549775319754618 132 131 137
9.9115739193265657 2.0084257937214156 -0.4736733260576321 86 73 56
7.5227578651412363 -5.5641945126434429 -6.6308568387542834 98 82 67
1.2110979059834848 -3.1300882416448932 -1.7920445869840775 63 39 11
9.9417245504386749 -2.9590760113018333 4.9942306894073303 117 104 87
-0.4037502075447228 -1.6330448188255522 2.0865018908505002 165 95 0
13.5146407939115925 -7.4385386570475367 -6.3879666354199971 111 108 93
4.1211371449672436 2.2542335165645579 1.1622009148065886 112 83 39
6.5978224764006752 0.5514199445119995 2.0225072695817019 172 136 62
1.9175912640969099 0.9916627106399130 6.9229653277932011 45 60 57
9.7262275742817739 1.2237213652650445 0.0458631083724409 85 69 56
12.0103640811169701 1.2613472003937647 -2.1767060900198749 175 177 189
8.6769242430234357 2.0814826278735330 4.3044577665269843 39 26 20
15.9943890482302411 0.0403270060243499 2.0851066072438993 50 44 48
-0.9904180029400512 -0.2620956184765076 0.2265174329263926 124 81 36
9.0971355558926774 1.0335640768538250 -0.2926123079391632 72 54 40
11.1104897819823893 1.7079799656652606 2.6087726370440594 107 90 80
12.7261533363840691 -3.4017183356804970 5.6884369851405445 24 24 14
15.7280670012023105 1.1823044675379473 1.1163139851582162 185 184 189
12.9898138761062789 1.2330652575752838 3.4601038588055726 123 129 143
2.2909397256378821 -2.1767956391279442 1.2443066118948016 107 82 62
14.9631423430925885 -3.3374243970081641 4.1238560073516206 91 79 57
11.7727765312591615 0.0025628380168958 5.6716913116937810 28 31 22
9.6966565483389999 2.4106295541128921 -0.7945895101081608 118 110 89
9.7832012389922980 -3.1490570007751613 5.1570120857129726 47 34 17
2.9170576455702082 -3.7378621942667669 6.7009771360951413 111 92 75
6.2714869685063181 1.8470929179419577 -2.4175605336367636 9 2 0
1.3261696425608351 -0.1784106494169262 -1.7550733471221465 101 84 74
4.6002892400504196 2.5446788585026883 4.1946384173124427 95 62 27
1.4026857232875822 -0.1875400325039276 -1.7757750021630876 140 122 110
1.4591242987253132 -0.9970170739161793 -0.2895188036686195 71 31 5
9.5700555338911730 2.4520774929326015 -0.6977733434221548 110 99 81
8.7452582373930312 2.0906085776830121 4.2818855681458263 123 114 117
14.3399573714760891 1.3527728720987786 1.2492767394219921 159 156 163
16.4834147431380273 -3.1105220395285356 -2.6172735490145715 66 50 27
-2.1949695062292705 2.4677195372222172 -1.8925109281273531 152 125 80
2.7795309661959369 0.0929945302556590 2.7584933602627424 26 33 39
6.1849336370855683 2.4497714280287766 5.2319446076641212 66 60 48
1.5704744270615014 -0.1194532188463814 -1.7807229300823280 118 102 89
1.6146981468798456 -0.6873171001447895 -1.0037675382833944 145 114 86
4.9258250444834566 1.1821323159975590 4.8179639619375099 58 31 10
3.4899959341577902 0.8125319746994222 5.8987397229807268 65 64 70
11.5899341261277797 -2.9780956937443781 5.0329269965196834 56 46 36
-1.4814134903451142 3.1064904360750796 1.2751335029754500 143 98 31
-1.1862407846285177 0.2822941019243000 0.2178847922543795 64 34 8
0.5335779909032475 1.8007846616226342 -1.7692281666860092 158 121 76
13.4227114550124824 -2.4069274900412312 2.7733520753917897 195 191 192
8.0202698683478424 2.3661943814897337 2.6242806322471166 40 24 9
1.2377273188876838 -1.5894279675318115 1.4719958404475586 116 103 84
15.7840511932771381 -2.8952707069273242 -3.2216879351649848 122 105 85
12.1034194466398795 1.4484203698910243 -1.9398668394088994 176 176 184
9.8293963972797336 -3.2119952865315842 5.2792838277474177 47 28 11
14.8462746029114303 2.5712682138838265 -5.4223190465305766 134 126 115
10.8748022900496117 2.7448503155608042 5.0772781641669180 103 97 85
-0.5235171215988644 2.5579324278224518 1.8407361994703038 101 75 52
8.5449569899200668 1.5523464210983979 6.0874308258593235 160 160 170
0.6659180809131181 -1.7711276993489553 -1.4968220379039119 78 48 14
12.0527584001841745 1.7008948431878539 -1.6004522684750906 122 119 130
9.4252953741149987 1.0843693846778790 3.7277300810681053 122 106 93
13.1571881408330498 2.2360109148946985 4.2728222592960421 60 61 55
16.0906427147838897 -3.6234376831581505 3.8555277822029752 143 134 127
2.2638580862482085 -3.8927417702085281 5.4155591162116474 59 38 17
-0.6936139641802251 -1.5200934457691679 1.4007426555711879 94 72 51
0.8785683569403303 -1.7403730912948623 -1.7818010895027767 80 45 17
10.8793235746544710 -2.3724873309727292 5.2667120079305692 16 31 34
-1.2298012266154479 2.4678674357009478 -2.6576799688370625 154 130 106
3.9712062025455532 1.2286658495145040 1.2084657324365919 41 29 15
1.5061475869506395 -0.2285693919338284 -1.7875851559773208 147 128 114
-0.8640542522760303 2.4245121393761528 1.4145034893381612 122 77 10
11.5038690283862692 -3.2190984140688625 1.4207136027363616 107 98 83
2.7735579119023281 1.1399916051569590 1.1837729326991580 181 136 79
-1.0580831612876045 1.9681780562177633 -1.9887970485874504 98 75 25
8.2691215354603891 2.2881995212046018 3.6375945293912317 130 121 112
9.8519315882830458 2.3918317718430782 -0.5588552089258261 92 80 58
13.1416962327389477 1.2364781126885034 -0.6854331579471743 168 166 171
8.9637401218017168 0.6274642411658118 -0.8036877150891342 124 111 94
6.1314425456719004 1.8096809742157867 4.8211293141219631 38 12 0
3.9959577879836639 2.5719436632338244 1.1485353567628098 80 53 34
17.1437800719247484 1.5343477927603340 -3.2594784807208894 226 225 233
12.0954330833275403 1.2166325237479139 -1.7249719142837567 115 109 109
6.6741619503819916 1.2211232622562580 -2.3486529113831462 93 63 39
1.6289477778751411 -0.1968573620095649 -1.8603478224992422 134 131 122
8.7840281780877216 -1.7303793683369411 -2.1345066268849355 66 48 38
3.2941990417239424 -1.5082516132028001 -1.4352208808225659 85 69 54
11.2325404045330774 3.0495848701299955 1.8104930806382289 125 116 101
3.7368604191595054 -1.9099990773927820 7.5205577974873208 105 98 88
1.2943913065409911 -1.7269535693340032 -1.2740138794113178 127 79 43
10.1408683298653539 -2.5469924721246997 5.1014891518925456 77 53 29
-1.2278321203311278 -0.5293310421591348 0.3024476157611451 116 73 38
3.8850867207415352 0.7875509607197427 5.6605769709014053 193 187 189
10.2278044841860769 2.5985169253508382 3.9402492679268302 48 40 29
3.5595319913771410 -3.1392992738348680 6.0841586463375901 95 82 65
3.3981593374039161 -3.1168840558406132 5.2779638218659590 102 85 69
12.1955250597523790 5.7925564052652572 2.1726094764656305 175 133 61
7.7140318040684424 2.9052861693076597 -1.4561711982913192 122 120 108
7.6906316513184132 2.5277678173548681 -2.2890731151115613 40 26 13
4.2178460687063275 2.1747356760963070 2.2705401063094497 74 66 47
10.1768718784947101 -3.1662863470492706 5.8299735532092720 37 22 15
3.7129573953381652 2.3321284412171859 -2.1364467752760117 99 91 78
3.3882446888833266 2.4261792098828265 1.7725307771045007 73 60 43
8.1771901377332679 0.8934923448277160 4.0647343270762377 108 106 107
14.7095753469526436 -2.3726757935841007 4.0065005053694644 93 79 53
6.0880274918276722 -2.8184597212381779 -2.6203293165518815 111 92 77
4.3094737612366263 10.0855732483481475 1.5956207810463106 40 32 30
9.1321217627267828 0.8983305239202529 4.2478885265798043 149 133 120
9.9236191638819538 2.0878813385355328 3.7660772518519234 38 22 9
9.2607670317277062 1.2867506020831261 4.0418061311321534 90 73 66
10.2168243001569561 2.4794069746756948 2.8687781257042024 35 25 15
17.4483166984926861 -2.9795042881930756 -2.9558952892542276 120 84 60
9.8897382352093608 0.5736423044347364 5.9553876139961464 148 151 160
9.5109266162844026 0.9983457886137066 3.0953467416623028 78 56 42
8.5431239987367835 2.1266654337455262 5.9435296344273265 100 85 66
-1.0023328000924960 1.1939641536252186 1.2475919964569995 152 92 20
6.3894469591876506 0.6255982473920177 5.1287673393997055 82 68 59
2.4218958015477017 3.8789225104853573 4.1637102819382941 39 25 16
-0.6226907847936572 -2.1547723193143451 2.5321836991971174 194 123 17
1.9409685652589928 -2.2427002868928798 -1.9138854448497076 76 45 17
4.2583030226376417 2.4098884118134665 1.8235239288444549 107 72 34
11.5812793552239786 -2.6632935715424946 0.6472231965234529 148 138 129
7.9568465453905013 1.2302304570390907 0.8331835347181568 70 54 39
3.6699707676486861 2.2613024347481265 -2.2206455760535233 102 91 85
9.6450276769240038 2.3807829962449962 5.0651940598306506 127 120 110
8.0360456547525754 2.4768687782977645 1.2491947625587856 57 47 35
11.0521844859995628 2.4459837697326337 -3.3742142354584681 146 131 112
15.5037615316087170 0.9196646040683979 -3.4704646095054916 106 106 108
5.0146230616740137 0.0282732938922873 0.2983207763199870 10 0 0
5.5299689082010159 0.8486887621952203 5.7200295369470897 146 142 157
8.9635945007267068 1.4862044835265296 0.5737658736766842 90 72 58
3.2397927310219510 1.0459273508933746 5.8509653813584466 74 69 65
-0.3896165198234929 2.7553805835725629 -1.4612606773444721 180 148 123
13.2070254853710267 1.2620479864410623 3.8127174133123711 146 150 162
8.3180422637309430 2.7862229473047142 3.5746562712646401 129 120 111
2.4662026593882400 -2.5392688410963484 -1.0685587168706239 122 92 64
3.5260145337603030 1.1356510611562589 2.8838879169128768 109 85 23
8.3594470688464053 1.2223042310249084 0.2373153324441093 88 74 63
12.4972176852794998 2.1662358582570054 -0.5314782679251897 94 85 70
15.8071539295481713 0.7750301369862515 -3.3348141631101629 193 190 199
3.8236780272667166 0.8155143829052885 5.7401232692294393 221 213 211
5.1097847804006991 1.5588765856729172 4.6800708815776568 81 60 41
9.7931945700168050 1.3085690402744161 3.0850235738447935 100 78 57
-1.1364691810996299 -1.2120422083538385 -1.2534894153114775 79 43 9
5.9857188306696987 1.0450098275079613 5.5359432889118612 79 68 62
4.0469189061285995 2.1855256069531142 1.1419810246049633 58 34 8
9.6920669524443586 0.7514292322505374 3.9853511856021808 146 133 124
14.5909903470841655 -3.3699643259554537 4.2712161286174801 133 125 102
10.2070683999342258 1.7529700800100150 0.2184624892443398 44 26 2
9.5627451800075409 -3.1314138945285976 1.0121040120173985 106 96 86
12.7195187779655594 1.6278567208815464 1.7090100716417980 128 127 135
8.9392196755188955 2.5246884617027416 -2.4798028525778890 125 113 91
9.8974093792393489 2.0289986910131734 3.2016989734413897 61 28 0
3.0348206145924221 0.9696806628339080 2.6676539747608605 68 59 44
14.1642036280500037 -3.2022234608406013 4.3559159403174332 100 71 39
3.5584764517508116 2.0822294200676978 6.1821121505135075 154 118 66
4.1650703578622181 -6.3472343571613798 -3.3577787397288494 72 44 23
7.8710317464625463 1.1124577397644242 -2.9570128100629556 31 26 23
6.6449230835841693 1.1981780417731638 -2.4748534933638946 81 45 21
7.3642321185592170 2.5408231674899868 -2.3171274122934973 89 80 63
10.1403678462764297 2.7920538439247840 -0.1352947384119449 115 106 89
13.0003502897791900 -3.0403208710267529 4.9401233855751459 22 20 21
1.7608977812564877 2.4570180211581549 -1.7955111302842308 121 86 56
8.1073156317594535 1.3995726511356295 0.4874523836836467 121 107 98
9.9098988262279608 1.7440197825830059 -0.5210178696528490 69 54 35
15.6035725249174071 0.9512522851676487 -2.6896214983786040 190 190 200
8.4456190004055589 0.8532165915558548 3.8687023961170723 102 89 81
4.0571849843357128 2.4870148467703781 1.1053017806024652 139 124 93
-1.6252513452506197 -1.6150800738790330 -0.0992524004693772 69 30 1
-1.1059622778422367 1.1541320586975701 -1.9438875372494413 99 57 15
12.8584975712613865 1.3718055369925188 2.1350219528712868 189 189 201
7.4557241239461778 2.5615191677604776 0.8128145436034249 95 86 79
9.5582619776974749 0.8692802917525113 3.8237280544005325 134 120 111
8.0254312553713412 1.3290084549182166 -2.4923359128789220 83 50 7
3.1358820691977889 2.5189415700344724 0.2914326748226384 140 119 98
6.7081464853970569 2.3095243283680014 -2.6206104771806524 24 16 14
7.4395379845455976 2.6568532934387519 -1.0796053205225979 110 102 91
17.1877115033000401 -2.6807768002586569 -0.1801885274047900 80 52 31
8.2489227096421889 1.4642499720522317 0.3574352826522283 109 91 87
10.9111586819857820 2.3010973527461882 5.2402552006646319 45 71 62
3.8420859040650206 1.8397031373897434 1.5781999823410413 84 74 64
12.6902635954531320 -1.7377513439426657 4.7872531624091144 27 28 22
3.1878384824419785 -1.9680969075322767 2.6300425996370138 131 106 101
7.9357037181015153 1.8738313811686647 -2.1821538701292145 112 81 52
9.7534783487328749 1.2074191432829984 2.4745060159522096 172 132 47
12.8002177271813213 2.0670767539214090 2.0505183716568025 36 22 21
8.7696403949411401 2.2690189486488124 4.5789098120514620 138 129 122
9.0032176855978268 2.4797073651443200 5.9438646424397588 119 110 95
10.5419984133228315 1.4607185355954555 1.4421604415438811 144 105 30
9.9020681874302401 -2.4820221773395730 2.6545135233190238 100 88 64
13.8124675687820702 1.1790031890732278 4.0028569530082123 131 140 149
10.0304893737053487 1.4772952789386951 -0.5769527255041894 86 71 52
-0.3552438248212123 -1.7001741982054466 1.7624273975759770 99 58 26
8.1444055939011744 1.0335514508950288 3.7659646868432843 105 94 102
11.6340614632197354 2.4685328157127460 1.5563046842773225 123 114 97
8.6207798172196348 2.7483292976308631 0.8478646538539533 105 95 85
8.0301255139034815 1.0092899604114696 -0.1660322230507801 102 87 80
18.6597542159498175 -4.0533269684849147 -1.8813238557537275 130 118 96
3.5178621261446406 3.3442569790130849 1.5755173703423073 128 103 49
9.8186673068604424 1.9715981026569314 -0.6615072013921230 110 94 78
2.9716565481192685 1.1003898677788466 6.6649847951588548 126 122 95
3.1555958589917918 -2.5013423580174403 6.3198142603802676 118 101 93
15.7822169373053374 1.8358360837960441 -0.5937916844133526 27 7 0
10.5087128684182520 -3.0147594883472251 2.0779515649554101 122 106 91
2.4218205068927512 1.4512694442629912 1.6700073949924858 137 89 41
7.3807731561804513 1.0171186933882963 0.8455132745532493 77 36 8
7.7671947114285542 1.8704074686638157 2.6113061700379188 87 57 23
10.3855713005662178 -6.6040438448170731 4.9101246016436635 15 6 1
10.2137491099870665 1.2768548390783354 0.0691864390233585 82 64 52
7.6881617178209929 2.5141093197577815 2.6240012023160286 150 142 129
11.0325822801334610 1.8261290504209828 3.3154489064347286 71 59 45
4.7756075024151992 4.6547627510695184 -0.1700430553734639 9 8 14
10.1702671966902010 3.2274795913803445 1.1943200244549708 158 114 39
8.3977654087064764 1.4979651002890182 0.5282541237028503 128 111 103
-8.2329332478366268 -23.6750439478872927 -19.3834550887437018 64 36 14
4.0394195494591454 2.6912805060117386 1.4254424658767211 137 121 87
3.7040782453964645 1.4438571012123718 -1.1293674639519991 134 106 82
12.1478276513885461 -2.9109312353450414 0.6279965614518331 75 66 57
7.6436264272102887 2.3908368544106064 1.0856051669982938 54 43 25
2.9680434088320662 50.5469581854378376 -6.9298846215593572 17 15 18
5.4228633493359641 0.7237490881648382 2.7565019698400062 143 112 94
5.1320789367581385 0.9176918589360472 5.1260194944979460 130 104 87
1.0168050137003990 1.8616047820100405 -0.9278114393154669 194 157 130
10.9380711154730417 -3.1398615709753743 4.5694439630236170 59 53 41
9.8802150701388118 2.4133073277789663 0.4624059245345770 79 70 55
0.5274643138034377 -1.5426270028110853 -1.9032136145670917 152 123 117
8.8461099372298815 2.7026517481388157 6.3249043482332521 134 122 108
7.1798644608435334 1.3358933331208396 -2.0183759309521365 138 116 102
7.1149133160998934 -4.6803464289291759 4.1221401152718729 126 124 127
5.5517002421958823 -2.0049806226871656 6.2014294122852665 97 88 79
17.0719286351687316 -1.4130853653678843 -1.1069765393391220 152 151 146
8.3331704643546995 1.4802221896342243 0.3953745115540676 97 82 75
12.2291327709304039 1.3074800247569685 -0.8389206458661422 184 184 196
4.4649614170616738 1.0464358985644637 3.5915102259323044 131 108 67
12.8847931587909965 -0.6294645169900899 5.7674870645083880 35 51 51
-1.4963130473103492 -2.5377123519504488 -1.1132510064525276 56 24 3
1.9781694016320670 -0.2101655378372154 -1.8733033013609448 176 130 115
15.8550199905947551 2.2066715454065631 -1.1491123375364178 73 65 54
-0.9491254097231202 -6.6292721970453341 5.4738006539965873 53 28 6
10.2327426602575287 0.3296471472151029 3.5866254434871201 137 136 142
16.2829681016367225 -2.4170700701863916 4.0872942424996568 83 58 38
17.9158422673371192 -3.4387747580209993 3.5049657465637325 109 91 69
-1.2028318786556920 0.1789453763068419 0.1858515755020175 118 87 58
10.8343033652125573 -2.9352181814878482 5.1096710869962321 35 13 2
12.7401505457158635 -3.1300508624694170 -1.6099683074092275 157 153 150
5.2565426589739959 5.5234425045571189 -0.9702601728773269 105 101 92
11.8316031163076545 -3.0292340050372881 5.2647988608849143 31 27 15
9.5148698706084556 1.7150698769839141 3.0591387587517573 131 115 100
9.5049749272023156 -3.2639012490801940 5.0489606006487842 105 95 83
9.7505727430382052 -2.9145402501985824 1.6639266801680082 102 87 64
4.2452471865219152 2.1203231114719161 4.0025876004185861 34 16 4
3.4495115997468941 -0.2415427010637830 3.5919975904167769 29 33 44
17.0536316484749690 1.8213968594167740 0.4707185085817551 98 75 69
9.9004639248807482 -2.7745983929182612 5.1682614222029164 76 60 47
8.2474174049922588 1.3966118003300962 -2.9233159156291983 148 143 149
4.0963007287308502 2.1668935029783172 1.2882715975609860 60 34 0
13.0359375860439215 2.5254194252266324 1.4122682646903439 72 64 45
7.0064269673005359 1.1358137327432414 -2.3382936685826849 42 14 2
7.4270197700570133 2.4622247797887047 -0.0274953518136336 50 38 22
4.5687323750010220 1.4633040819895393 4.1023613353938426 25 16 0
8.6087258626653238 1.2186630987065108 -2.3559197563682783 97 84 76
4.6714577974098432 2.3402664947743372 1.1913620104634681 91 71 36
2.0082060571797133 -3.7720783485629146 -2.6149368393778585 127 91 65
3.6555725168537623 0.7280888655391691 6.7143002815385859 130 124 124
12.1016875827005315 1.4555921089600319 -1.5496003568627279 127 126 134
3.6174363652136359 -1.9114786092634788 -1.5778607251328569 141 124 108
2.8462858588152145 2.6960913528023118 0.0214123702099782 97 84 67
10.7369306257436037 2.3666025460146556 1.7347090804794643 79 66 49
4.1481615012070021 -0.0124834446418415 -0.4886550060271688 174 143 115
2.6145518527524891 -2.2489762035311966 1.9184301353645170 74 41 32
1.2539979185380681 -2.4100358480431563 1.7513568117397249 108 78 54
11.5976027503747687 2.3381000599528727 4.1940685303040270 117 111 95
8.1762271760615981 0.7945297931806823 -0.8805101807266004 19 11 8
9.4273150958844170 1.5736541775578590 -3.5291147876385867 142 133 124
9.3827567123522932 1.2378171860461056 3.9295074875419527 97 79 67
9.1203375028988063 -4.5811661005245821 5.2178143518439075 162 153 144
4.7383668539935089 5.6740923512449726 0.7067947120142436 53 54 58
-1.2384846206711075 -1.8842458945087672 -5.4865562243023955 42 44 56
6.5096084676740462 1.0448322013467035 -2.5055501395562567 199 200 204
11.3228095541565015 0.0086416250588802 3.7929083825075862 131 121 94
-1.2453708810261348 0.5790242032328579 0.6707626962357287 142 84 20
8.3846861872415417 2.8562229980628335 3.3916731815749426 167 132 90
3.9889509479408969 1.9302057038142322 1.5477699564406073 81 71 61
6.6630110715995876 2.1887599923346017 -2.5782546015081391 31 10 15
11.4779773062928463 1.5991679365634410 2.6582626779992928 18 16 27
14.5349939907829349 1.2191994436978486 1.1910487633915354 177 174 181
8.9795469284801346 1.3199019228662741 -3.1459781236882756 142 140 127
0.5045741278229376 -1.2457742241171399 -1.9312952317783589 117 104 121
15.3286729443314407 -2.6469103179148643 -5.1415784748392968 132 103 95
9.6383592374125993 -2.6817446034648644 5.5883905256397339 61 48 31
3.6381788579110954 -2.9755552228716935 -2.4987478247362733 63 29 4
7.7756823739292056 0.6806401994953798 -0.4168464598462854 142 120 109
1.4977173691524139 -2.1206952857878183 -1.5640826147016516 90 46 11
3.2593024192782885 -2.4309284014611467 4.8579372844483943 81 56 36
3.8677182664985796 0.5882849151909163 6.8310596952009872 139 133 135
6.7729363659886328 1.7109392113691997 -2.7266711695695682 73 56 49
14.6226803043393456 -3.9942957652120490 1.3730871916916090 181 175 185
16.6097201589773427 2.3551634653145919 1.0572162317071765 78 71 55
8.3674713139880978 1.3665676708480547 -2.8738736238735547 113 99 60
3.3241350435115193 -2.4359876225754893 5.4780820562654036 73 51 27
13.1468092379915529 0.2863349297511892 4.5889035535549416 39 64 58
13.7408502326946032 1.7207671259525714 -0.9313127073649450 121 119 122
3.8546581103612936 2.5022604456178787 -2.2590878842168953 92 74 54
23.0134325200956305 -3.9160421530430485 -13.9776175374222618 147 134 117
5.9940771097926557 -3.0094543233544391 6.1599761412038925 146 135 133
9.4256922994547399 1.6071631061617238 0.3770854013295180 101 88 80
2.0658728690233943 2.5315097718279609 1.4012170683051122 73 48 28
2.5817880080146418 1.0712212354067290 1.8498045225751674 133 128 124
4.5131665297952219 1.3015506179912266 4.1327388287243414 46 26 0
2.3536727187789941 2.6420825191805224 1.2193099245608843 94 69 49
7.4367689425972223 2.8101137024500034 -0.0471208619546243 90 82 71
8.7212564341069054 1.1029601004396516 0.9708826683908655 172 138 75
8.2085741031811494 0.8746240472677363 -0.4713207631656454 94 80 67
14.1985618130180917 2.1838904007440534 -0.5514574593300824 112 104 83
7.5651116539974348 2.4331242272007851 0.3794432589500039 99 93 81
6.5914901651725195 0.9235815130416617 -2.5250539573100244 175 172 179
12.8392120278280935 1.3593794669134363 1.5025585226837188 152 150 153
11.3794067241656514 1.5485797247280786 3.6465166179041826 80 66 55
2.6346343369626011 1.0712604477796226 1.4294844470342065 147 143 142
7.4090079902136283 0.9799212994180923 -2.3870510439006534 138 110 73
5.9438852714458390 -2.9151633617849648 -2.6551823718897984 117 90 63
10.3904970870515641 -3.5379563625618675 4.9105332695782975 88 79 70
12.7732209184643590 1.6494173899455484 1.7531759533178615 133 131 142
4.0981837469049394 2.5479370016121483 1.0999304043296270 132 122 95
15.5163521493484282 -2.2278223101495542 4.9035428448626108 49 69 76
15.0637174874106314 2.2903030727088520 1.2417393575251530 81 76 57
12.0795241600821672 2.2679625893741702 -1.9716099617941385 67 63 54
4.0023110681260778 1.0487802001212416 1.1683007518385398 133 94 35
11.3833928047602662 -2.9219902171549919 1.6590697462554551 88 75 56
11.2166305211094244 1.4941941564442718 -3.5034498688003031 145 139 139
7.4833577818685209 2.1594203651441419 1.4634719143217787 111 93 69
6.1845864823796681 -1.5833341034314448 -1.4182892253002113 114 98 85
9.9460088850217385 1.3970721482519912 2.9149214532551362 66 49 39
7.9269444876786324 2.3229063526854987 1.3338315961586278 103 80 64
1.5570546639144032 2.7753312116096081 1.1217384621879005 84 69 46
12.2070256593986528 1.1619330831501076 -2.9326246230247213 214 212 217
8.6398502245696776 0.9636254176448549 -0.2850265835802075 96 85 79
17.4637674618927043 -3.2330452392366613 1.3870473469534075 67 50 32
12.3341911835036289 2.0140373061350294 2.6098595108526985 139 123 108
10.4344345192767385 58.7208511065859753 -6.1315259420083343 26 26 28
8.5705004732965779 1.8036202232797274 2.5922655867941109 93 41 2
-13.3780493911055327 20.7444629689360127 -0.4830263862639412 185 142 63
7.8366268800864471 1.3718436059072099 -0.1115072766713974 63 48 45
3.5882666460456609 1.7358532301079703 -1.5900791941657011 139 124 121
4.9111084302452293 1.2478574469724857 5.7135232012092763 105 85 50
4.1622703376324566 -2.8162752945344787 -0.6094154630760942 159 144 125
10.1724753854608050 0.7689794508401890 3.9310184737940159 171 157 146
14.0671637757562173 1.2391482153974389 -4.7881834075858061 155 154 150
8.9731343099569809 -2.9350673984225204 -2.7830032798527258 117 108 93
7.7004940754385975 2.5092993042219831 2.6055154412925132 144 127 99
8.3777141210148045 -3.2403170200860312 -3.3577322559554164 99 83 60
4.4455330424536532 0.9434530298278941 3.8981312554127281 152 114 43
5.9354510721107552 10.2160262857993676 -1.0356485749990674 22 22 34
3.0115045876955144 -3.1852615457019806 4.4493526053819998 106 83 67
9.7605492702215404 1.1571952883432575 3.0502952521881808 96 77 70
9.2857239440584181 -3.0043207907795129 1.2336210383995012 88 77 71
7.3304048295971338 0.6231412068970199 -0.4401217043396900 112 98 89
7.8453275879511812 0.7686337723539567 -0.4452407581858290 154 140 131
9.6933266485433389 1.6616810598259573 -2.2917617312698284 108 77 49
11.6036910182060904 -2.8615703630783424 0.7415113211554047 133 119 106
14.3394695921614552 1.5116314012233052 0.7688586227926867 47 31 18
9.7784657537598996 -2.9431206598793693 1.0233192105616358 75 59 33
0.6737095706465653 2.5496611171281431 -1.9870906622437134 130 107 75
10.7049911423083266 1.8378434590731811 1.8174001126261135 50 26 2
8.7264670437308851 0.8136178350486272 -0.4287462260375736 135 122 113
4.2451158354113776 2.4367971242376822 2.5413645838716481 103 82 53
5.1580683305745838 1.9368031729221216 5.1121237763411465 32 14 2
7.6025063609398664 0.6221779146349681 -0.6168096658654140 99 85 72
8.2908180696080613 23.6475999974707811 6.1619716494882164 9 15 29
2.8091505396265966 2.6527173414350842 1.3858241016381134 89 56 37
-1.1780494943727484 0.3001556167312761 0.1258760069506488 108 78 50
16.1278758562009727 1.2016105324759225 -1.5679233076465284 229 227 230
11.7696016172500180 -2.3201504568327045 4.8423051902168037 37 36 31
4.9873283526306800 2.6056168034670546 4.7058460493330339 121 111 101
