ply
format ascii 1.0
element vertex 695
property double x
property double y
property double z
property uchar red
property uchar green
property uchar blue
end_header
-0.3293076109641643 0.3803187445766280 -0.9171990222976825 70 50 43
0.7657948339749266 -0.2055163476985842 -0.7054761329470866 185 181 172
-0.2267058432427149 0.3271491966371761 -0.9210255100755070 20 19 17
-0.2066386129470883 0.2322086084207636 -0.9176777816653938 50 50 50
-0.0147411968084642 -0.1622023406355663 -0.1822750032844276 70 53 43
0.1782650872546786 0.2101301923656631 -0.8377816633913890 107 109 121
-0.5454940271864951 0.6278305306985235 -0.1187807755069886 201 201 199
0.5067229615640207 0.4836556182530131 -0.1862282913326875 61 53 50
-0.4285814234214350 0.5528992794913803 0.0249841872276914 125 127 116
0.3980011663286615 -0.3849720245009706 -0.1374626194993646 60 46 37
0.6389069881925828 0.4978190198791920 -0.5755900423856248 70 51 34
-0.8717429787840684 0.0671355916467944 -0.9802128561452504 6 7 12
0.6391301134973110 0.4115330262103515 0.0696860094679139 92 87 84
-0.2196525916048336 0.3444360641882730 -0.9151330660224924 39 41 36
-0.4506803079787901 0.1409506843199947 -0.8492649411546891 90 86 87
0.6602727136277733 1.0041812108649117 -1.2367009237139710 41 22 8
-0.3749446813702100 0.1022093904629263 -0.8707494761154922 28 32 35
-0.7159877478817344 0.5314617371131106 -0.0283615313186831 89 93 92
-1.1049037965749398 0.3549947903370611 -0.0725361368203391 81 71 69
1.0688970023938165 -0.1926137529016787 -0.0980836167493531 20 8 0
0.1825771587170247 0.2197771515948256 -0.8415913214996744 0 6 5
-0.3405459726936753 0.0618268944188447 -0.8794845754907124 35 39 40
0.7240376062150592 0.3944658537239126 -0.8513251872716533 49 40 35
-1.1475845545928693 -0.0473752960341076 0.0049218858109230 255 225 227
0.4021297787603256 0.3798549386640216 -0.8153635403988986 112 91 74
-0.9321876405010272 0.9017165722839272 1.7675532218877563 152 155 174
-0.5336988687191321 0.3471163275522303 -0.9179672288200127 115 89 62
-0.9753696212798614 0.8615358048085389 1.5705064712686758 61 59 60
-0.9754226100064590 0.8137298973539496 1.1993171520322414 83 52 32
-0.9415343852558842 0.4758825616002112 -0.1540059315656888 82 87 90
-0.9703817732968902 0.6661174987073142 -0.6378899152867644 219 220 222
-0.7562388451306556 0.6022421638319770 1.1572798433617557 65 69 80
0.4907526884028388 -0.2926698157290688 -0.5869641009815629 51 37 36
-0.5305102374702129 -0.3553975329167641 -0.1677140855276842 158 149 142
-1.0531967043876211 0.4140264395853882 0.6303766929512239 127 125 130
0.7880613636279806 -0.2699266319271093 -0.5332963067183679 63 47 31
0.2534651958484510 -0.2189584295921720 -0.3571750020453681 35 23 23
2.3694023757446008 0.5370135474565256 0.0375391356095145 90 78 64
0.8498414593113008 0.3408668767386444 -0.6399785279083078 67 42 22
0.7822339670895707 -0.2736919597740421 -0.7188007680710080 30 25 22
-0.2653657628843424 0.2334416025702442 -0.9456270891536801 53 45 34
0.0820563045255876 0.4253724062864054 -0.4858780044647033 53 32 13
-0.3186682201693171 0.1363130393000872 -0.8592172728265104 68 66 69
0.3405890226321469 0.5006189651303606 -0.3771654076593969 134 116 96
-0.9717375436707048 0.4144162225382135 -0.7220453415842190 179 170 163
-0.4523584808374310 0.0989293910817788 -0.9696056980029416 8 12 13
0.1404809988449995 -0.5735442952788867 0.1138921496491602 43 27 14
0.0581797404474654 0.0241783649995742 -0.3435552633862723 84 84 74
0.4992229487736418 -0.3176567714122302 -0.6396567332603443 111 103 100
-0.2264645260559174 -1.1966638843984296 -0.9523563494449515 29 18 12
0.4364072461697717 -0.2972700489402305 -0.6630286666697279 144 142 155
-0.2021746787578803 0.2986795018456573 -0.9206924124531315 63 54 49
-0.3237817779586559 0.2887979056514222 -0.9058281251738047 14 3 7
0.3320729003754458 -0.0111971326100064 -0.7481474704075618 128 126 129
-0.0631835914513413 0.4954410640145269 -0.5076368735248590 201 188 182
0.7951913744998241 0.5800152543485587 -0.5154580786067871 61 45 32
0.4175856989266446 0.5453294123754163 -0.3608633337557172 93 73 49
-0.0056822845763401 0.4410420675468215 -0.7069084633745873 52 48 47
-0.3708345867709453 0.8448693746467139 1.0094810769418783 27 17 16
-0.9859556281748695 -0.5092708699351652 -0.6836656759113700 150 146 143
-0.0908325877120875 -0.7643213214497233 -0.8199899637496711 28 14 5
-0.7814415929501315 0.1260630847431288 -0.8661793153339257 46 37 38
-0.2563593141067484 0.4474805507158953 -0.6826214272862202 97 73 49
0.8926940251020803 -0.0076186506626102 -0.1996049565336824 18 13 7
-0.2125347056255322 0.3705305118232180 -0.9360116793208660 50 50 50
0.0670161581423410 -0.2040294786681140 -0.2858656246592183 91 68 60
0.3727538796833542 0.2592007034272942 -0.7840524067627670 39 22 14
0.3729274180767039 0.3683434374572174 -0.8049097240350248 96 78 58
-0.0904337006850818 0.5274679333782901 -0.4911015011961582 157 136 119
0.4870112633091830 -0.1259858600150903 -0.1674943846938768 54 52 53
0.4012316618798909 -0.4012799034541549 -0.5564505147323417 105 93 81
-0.1570347192940314 0.3519359782747968 -0.9823565482357659 84 62 39
1.4792158713119290 0.0201000410793037 -0.1525689644632994 117 104 88
-0.8058773524822219 0.3888282426550480 -0.7758787539615087 175 175 177
0.0835114450077876 -0.1639518478884438 -0.2430402977996431 173 176 183
-0.5595897122961140 0.6917188438089447 0.7340522218112424 67 62 59
0.7198530163044315 0.4085935385741160 -0.8608413442811319 36 31 28
0.1983355361275023 0.3655086727713587 -0.8781007421135820 64 47 31
0.7028253821813901 0.2059915450595246 -0.4584278760153580 86 61 39
-1.5184873078705721 -0.0899060035743719 0.7861337556921766 56 55 50
0.1630180606165449 -0.2050114022675328 -0.6805180930905937 135 130 127
-0.2195466959833819 0.3329896170406980 -0.9279639264756476 97 88 89
-0.3953416836953607 0.4275544662525950 -0.7147851029262159 90 77 60
-1.3897414864122934 0.4805305405015001 -0.1084829361610061 150 154 165
-0.2200143112505974 0.1789663920631709 -0.5828629889524988 200 200 198
-0.1796034668996611 0.2864007271597935 -0.9461356143622280 45 40 34
0.9564099783913048 0.2296301646233229 -0.2212597118576566 13 6 0
-0.8099060456078879 -0.4118850700080423 -0.4515608115046621 73 64 59
-0.6689654761615305 -0.2353727171954773 -0.0613271113147294 172 168 165
-0.2316367291566011 0.3146452878406419 -0.9192329327829334 16 16 14
-0.7681665537634166 0.4617024496133392 1.2260570275470659 84 84 82
-0.0350574720698948 0.2907934643535622 -0.8792165123168270 69 51 27
0.0493850751997595 -0.2927443487408041 -0.2215452505850043 38 23 16
-0.2044809019930330 0.3838543441588884 -0.9055353227960529 127 103 75
-0.2938126308274815 0.0670902479076599 -0.9390885667027074 54 41 32
0.1242072677370852 0.3118994904410553 -0.8674823457788141 58 41 34
-0.6435371340176302 0.2885842550769194 -0.9017757528874430 115 89 66
-0.2240404313980621 0.2367839132433504 -0.9097994022002591 115 112 107
0.4551355761013166 -0.0511544498622359 -0.7059605077723687 59 52 36
-0.4075436205743204 0.2284961912587643 -0.8668719152579258 154 129 107
0.2258339294586123 -0.0489359405350235 -0.3140294454516784 62 47 40
-0.2334392355085955 0.3182420408498589 -1.0265778724648014 81 82 86
-0.9246129649067757 0.4501698722496280 -0.8017545495628043 160 159 157
-0.7675573916101307 0.3621348845252124 -0.3467502870147688 94 102 104
0.0608717120601957 0.1849239417818795 -0.7587677026097490 75 50 28
-0.3275001071024883 -0.0910727589338323 -0.8282984589299441 139 142 147
0.6887926748919346 -0.1590117900604421 -0.4284487221467101 63 50 33
-0.3334228743233270 0.3318946423354509 -0.8626976821501787 141 119 98
0.0654429708895485 -0.1910124445689682 -0.3022063561558002 180 167 161
-0.7347580322520720 0.5241473761608360 -0.4386420462219113 178 179 174
0.1226925570294650 0.5325986008529897 -0.5004401414879042 77 61 45
-0.0640875738137029 0.1152128913987554 -0.7368534772131451 69 46 28
0.5038805408482985 -0.2040349333424468 -0.2281771318551330 57 44 36
-0.1063423420929321 0.3832267297904852 0.4271404081878108 121 124 129
0.2557929927106217 -0.2092705442044883 -0.2947002215360334 38 21 14
0.7440486939339374 -0.2414300690065554 -0.5498989162068856 41 25 10
-0.5418664909977418 0.5151157291486476 0.1990529029162081 96 93 88
0.4741494559319223 0.5450412344418356 -0.4071422309928048 91 69 48
-0.7186774981107562 0.1563072880913493 -0.9386871544890391 90 86 83
-0.1155985561490361 1.2330910763103042 -0.9020500928230887 10 14 17
-0.9467756782483405 1.0215971253334091 1.7928360530431391 115 116 118
-0.2475674448750602 0.2651524824599277 -0.9600982749097299 0 0 0
0.2791609380181890 0.1640564877592982 0.1035286091110713 225 224 230
-0.8516646955406788 -0.2434857416579810 -0.4570542649813669 81 54 35
0.0193550347524527 0.3731672359528728 -0.4917929093586744 64 40 14
-0.7397438487298366 0.4366844919207618 -0.3764117624445613 223 224 228
-0.3670035006322985 -0.3536585037882266 -0.8550473321347772 145 133 133
-1.2388051276444709 0.2580523505032864 0.3074511398028517 143 140 135
0.0058668030661028 0.6354749145717304 -0.2594883439940682 154 129 107
-0.0348649139252046 -0.2520842155967717 -0.5181834227359611 142 139 134
0.3162165500078797 0.1770154988728366 -0.8568663473650032 135 135 143
0.5475750555592096 0.5713920946183633 -0.1188450101347934 20 17 12
-0.2982300875264219 -0.1170942782243860 -0.8357359637510478 140 143 152
-0.6540737233003284 -0.3204919531329620 0.0255056592568975 166 164 175
-0.7577850640899524 -0.3442015920458428 -0.8437245030923213 53 35 15
-0.2547695918277368 0.3164596504227818 -0.8909448527104882 48 47 43
-0.2184492667844191 0.6555977569351182 0.3823037768857009 129 112 84
-0.8622962950605528 0.3280281294375502 -0.3416945948053863 136 140 151
0.3824341231550873 0.1263534640469267 -0.7675839683887574 62 47 28
-0.5348781413579915 -0.1576529475017545 0.3647697598875536 155 155 155
-1.0061471829577600 0.0613924114876271 0.0137632535521982 88 89 83
0.0143957187931176 0.6478409259824355 -0.2307474513427026 68 44 20
-0.2868804252220670 0.2424205717810534 -0.8900903201796084 76 60 47
-0.3285860943495073 0.5824944202980190 -0.2591871235246302 176 150 123
-0.2133893003094714 -0.3391953701134376 -0.7823745995192040 58 40 20
0.6466099731942374 0.4490343624562667 -0.8154068730547721 87 70 50
1.3813164974251173 -0.0477837710601971 -0.4214749987554254 89 79 69
-2.7364651683979098 0.8382602867040096 -1.3301643126057550 86 65 48
0.4011627458845072 0.5576859937972226 -0.2431298626414376 114 114 102
-0.5327941503108434 -0.3772314807283277 -0.1299016017776967 151 143 140
-0.8711874155819481 0.8468641849926165 1.7974498106916823 66 73 81
-0.9820808924870436 0.4061623393074459 -0.6610259673114324 129 107 83
-1.0368274233832675 -0.4206637439286869 -0.6227915170825902 71 53 41
-0.7987760556522217 -0.2541566708983478 -0.6270594903044666 85 71 60
0.2312035105726855 -0.3565982066419368 -0.2274715740911807 50 37 29
-0.6465047225661564 0.6621275567783405 0.6047698751841551 110 88 64
-0.4331192331608308 0.4159944669397859 -0.7169994869616751 163 149 140
-0.3771148851890317 -0.0732302489608188 0.8332130390788608 89 80 75
0.0670753882617375 -0.0148578357672606 -0.3476262195149328 105 99 85
0.2769914984520213 -0.0150045489591378 -0.7462548829132026 153 122 119
0.7288937093348038 0.4431574980391507 -0.7830908132163286 16 1 0
0.4524424118998946 -0.3895402026245735 -0.4571269928721280 106 101 108
0.0508700962799716 0.0568024577685797 -0.3433342988768846 178 182 191
0.0461682007689314 -0.0155241975761089 -0.3443140216138625 185 184 189
-0.3312644369795643 0.1266852223843572 -0.8868214603530782 39 44 47
-0.5726395156130943 0.0898155963178723 -0.9922354120304958 39 39 39
-0.7501041586461265 0.0607703895742302 -1.0611824613795753 18 18 18
0.2084265378023905 0.3193855573075867 -0.8419607970444292 66 49 42
-0.0904363158006505 -0.0481800672287696 0.3036692014860692 244 239 245
-0.2262004911539053 0.3964441542437682 -0.9216603668593465 117 93 67
-0.2974930244847452 1.6918780172431727 -1.0086534033983998 72 63 54
-0.3894219467279249 0.1049326642905577 -0.9137111369696677 28 30 29
-0.0570691374844714 0.2962392615044875 -0.8961478379287178 73 51 27
-1.1383839882193529 0.3805382429067298 -0.1828068383589712 179 180 185
-0.6499799419756159 0.2608617489007555 -0.9185934650832628 141 117 91
0.0291939195702775 0.7235829826807928 -0.2246745408827070 70 45 25
0.5557782646384535 0.0160576325346865 -0.1411912054851064 44 33 27
0.0813543318353561 -0.3102914811476528 -0.2776209546498072 57 40 32
0.1028351145764141 -0.2644376089968918 -0.3129943973945633 56 34 21
-0.1690902167353834 -0.2406225991167406 0.0455406539102153 149 140 135
-0.1894639601974738 0.3594603428588822 -0.9149658278501033 69 53 37
-0.3262146776568151 0.3624930968129005 -0.8720842170609481 101 76 54
0.5052820565606403 0.4285489335859780 -0.4897132164659403 99 81 59
0.5276607496376529 -0.1473951666564609 -0.1334495781772609 51 46 50
-0.5928955929201686 0.4935457466972847 0.0301524046279932 79 83 86
-0.5441189389695263 0.4003851037309698 -0.7505091117447104 105 89 66
-0.8786976541736840 -0.4243525272312151 -0.5002436955829669 180 175 171
1.8967558807546792 -0.4712800105555928 -1.1453043490703558 33 32 37
0.0278926976107921 -0.4171521497819854 -0.7561911307078650 75 54 37
-0.7040935852755301 0.4570705418685209 -0.6385990141077558 178 177 173
0.0488801559068914 0.0163226465017725 -0.3476252236118028 139 138 134
0.7649316404560322 -0.1926565155501320 -0.5591496404769785 46 28 16
-1.1998624663845316 -0.1943980354766202 0.1564830283066605 184 174 173
-0.8668241621402553 0.3609233726828796 -0.8134330367338556 232 219 203
-1.0689697191283727 0.4144449445251738 -0.4178262164682371 71 63 60
-0.3407444942315699 0.0975806695262338 -0.9916975941479590 85 82 77
0.7557061237517232 0.3437935017971510 -0.7609981619229618 32 19 11
-0.2169342663995695 0.3049000166020925 -0.9172614669231997 98 92 92
0.0371526409589353 -0.2483931538377936 -0.2005842852369019 64 50 39
0.7367622173067693 0.5219748095974145 -0.4871261683482915 35 18 8
0.2302028229457230 -0.1728313909486771 -0.3135363702845186 64 46 42
-1.1660147094641899 0.4242766180030897 0.0639631716154970 42 39 30
-0.4758813336825468 -0.2954240659766638 0.0822176596790851 184 184 194
-0.1373324374512901 -0.5562625773023342 -0.8273384644455785 56 38 28
-1.1674862393555974 -0.2144092982255329 0.1459107777856965 141 129 129
-1.0191993563836825 -0.1215292401517243 0.6116968790788108 17 13 14
-0.4389710071675827 -1.0310359642761573 -0.9523099095343647 31 16 9
-0.3161175323444877 -0.1260558713180173 0.6081358758214339 101 92 87
-1.1420408722366540 -0.1775857217367202 0.1332912941762092 132 127 121
-0.2864190635364219 0.5131673748714067 -0.5412865685199293 137 128 123
0.5112389526505561 -0.3407223636623858 -0.4225808208982597 254 254 254
-0.7830687472240180 0.1195818698011311 -0.9155686588104567 44 40 39
0.1831988354316753 0.2047640261029272 -0.8373407146044265 0 3 6
0.6769213168004525 -0.3897299247508523 0.0405783374637735 95 83 69
0.3138006347349846 0.3611070671901211 -0.4111042713790228 20 11 6
-1.0138394428067643 -0.2814353975942278 0.0419708002582899 144 134 133
3.4076969568982838 -0.1793895139033114 0.2793253673032514 78 60 38
-1.0383410718747099 -0.0825384993837728 -0.0781284867482430 231 85 95
-0.8051722618918014 -0.4877738687185045 -0.9720962156443445 79 67 55
-0.3743329029311691 0.5733217127475077 1.2388090055611534 78 70 51
0.6977554210766563 0.4615917905862250 -0.1957466793473061 21 8 0
-0.8641383652878843 0.2005619739949773 -0.9131491872826550 144 127 111
0.7574385813131649 -0.2352824355550434 -0.7126224742947830 22 18 15
0.0339045843486848 -0.1999585084862725 -0.1019862735797484 102 85 75
-0.1047383238456355 2.4501500474498865 -1.3641922644310767 63 64 69
-0.0972156029029897 -0.4651746466130149 -0.7548801101418436 28 14 5
-0.2388998345143489 0.3038371102679338 -0.9360445541316648 43 39 40
-0.5300673269876833 0.3851886923797531 -0.9441823793607850 120 93 64
-1.0257064467788608 0.0040451028821721 -0.0618027311323144 100 100 100
0.1808149696500130 -0.1294388445954446 -0.3372680138897975 105 95 94
-0.2165521403546672 -0.3763579751285267 -0.2690633965226761 134 123 117
-0.1982417281110945 0.3440580902689594 -0.9454554963319488 18 13 10
0.3642446592438320 -0.0099954379227047 -0.7357033938635440 102 76 53
-0.4128718742980979 0.7074758570007060 -0.7084811754480981 161 157 154
0.0884527742756080 -0.3042501846480784 -0.6786033690435017 30 13 6
-0.4050460316600652 0.1387147318777407 -0.8710985254718225 55 59 62
-0.1246491495455043 0.5215729422886031 -0.3510722631416037 188 166 153
0.6261182135068366 -0.1835564682277300 -0.6188298036074037 34 24 23
1.0597310717791033 -0.0334189291714303 -0.1415818651570454 58 44 31
0.4709561565416712 0.3394173274773531 -0.4624537585187090 90 72 58
-0.2779340799190115 0.1305096157616484 -0.9268594101490594 67 44 26
-0.2744691862752064 -0.1024368423139994 -0.8940101413415656 79 61 51
-0.3947246077048254 0.4711620809988777 -0.7230905541428929 147 125 101
0.5524011895196639 0.6656596990210422 -0.0316438106586893 84 84 72
-0.2259413104682035 0.2721128642434932 -0.9033854621669144 22 20 21
0.3415895274493053 0.5861918859803196 -0.1537122557468190 98 91 81
0.8605095680055261 -0.6068580620910763 0.3376002250682829 104 96 94
0.1165572996873612 0.5120457056964871 -0.5307031330785497 96 75 54
0.0494796871883443 0.0167716417227130 -0.3708345642524166 105 99 83
0.2144439528803601 -0.2118258456904503 -0.6109833126546044 98 87 83
0.0686407043066338 0.4855042141940905 -0.5084178220060904 35 17 5
-0.9905844658276222 0.9514822901082975 1.9127344482660464 146 151 155
-0.4844294207224317 0.4902288785661488 0.0409098210664253 97 92 86
-0.2557615947274449 0.2806442822476937 -0.9058585639588591 3 3 1
-0.8227413934407399 0.3486010461438790 -0.2773474553234410 81 85 86
-0.7206729439087246 0.9770507706638534 1.2415765726058858 102 89 73
0.1239153854935538 0.4373613706608020 -0.4773977060985549 142 126 113
-0.9331788774090316 0.4348935195940528 -0.2607560737840383 122 129 135
-0.2976239175233323 0.4615148245423799 -0.4325949264749016 132 122 120
-0.1541214334260724 -0.7233306646784490 -0.8899593263613311 51 34 24
0.3687286646960525 -0.3477116480960546 -0.4832581520408869 93 84 77
-0.0884803475627135 -0.4011272109971228 -0.7697534634256591 68 45 27
-0.3287117670046519 0.1260562128559465 -0.8620580262957086 27 28 30
-0.2953202957610105 0.4775310232586146 -0.4334082899634408 212 201 197
-0.4762672607606483 0.6038187562011127 0.0490343196887989 133 134 128
0.1034058514058987 -0.3202461503848989 -0.6966388002286583 69 52 34
-0.7218664446040848 0.3954471635728196 -0.3512223095487282 161 167 167
0.6378653256991547 -0.7170497699407260 -0.8850220326255197 148 140 138
0.4057804794472341 0.4148800047103351 -0.8396514590895845 42 23 9
0.4642244033518284 0.3975166456758043 -0.2226139901536676 77 65 67
0.2407105057021021 -0.0677539672184055 -0.3123706077570343 69 61 58
-0.2085266330441189 0.2515621059398548 -0.9095151323825773 17 18 20
-0.6020905429517073 0.2252419730313148 -0.9362853089268920 145 120 98
0.4819948465495098 -1.5871667182054368 -0.8732144685587205 23 10 2
-1.1343941401822579 0.4817028041868768 -0.3820182070458835 66 63 56
-0.0088564397280705 -0.1254881758686004 -0.0746733938678647 181 179 184
0.7194276651838820 0.2863719155283853 -0.8219683859103231 44 33 27
-0.4319835432597520 0.6115401746080319 0.1014478552188884 173 156 138
0.2002962156022492 0.5127563305167067 -0.5664654131518617 99 78 51
-0.2301900753043225 0.3132067828419780 -0.9181815913606908 19 17 18
-0.7568888719722695 0.4201357830358064 -0.7783986480240949 178 174 173
0.3411672622363031 -0.1490972340694323 -0.7086378093547582 155 155 155
-0.3692814319196867 0.4539045245438214 -0.5997456828113243 160 159 154
0.5666210673816773 0.4214990466267602 0.1836179319623235 27 21 23
-0.3258776536400018 0.1186741995691481 -0.8782578095070767 40 41 43
0.3109324731775594 -0.0387980103903899 -0.7368243302235845 198 202 214
-0.3441654296153537 0.1534920087520360 -0.8370535086179894 59 57 58
0.8645776014042676 -0.5766945068535574 -0.5835853665692691 79 67 55
0.3359289178097746 0.0316297785438316 -0.2048598514695131 209 203 207
0.5300886579859555 0.4808682851632550 -0.4043513435547277 21 10 4
0.7688653526291397 -0.1758407436300946 -0.3779827524758164 160 150 141
-0.3327538428597366 0.1625818387854793 -0.8363772598747136 100 89 71
-0.2130797168444698 0.2486830822992348 -0.9068238556481529 17 17 17
0.2985359293728483 0.5414292764310413 -0.3241723105193945 119 120 115
0.6529940462469339 0.8720157233824543 -1.1060282424283931 112 90 67
-0.3243230894018189 0.1070105517211893 -0.8609526079129268 16 17 19
0.3828897712069817 0.3605743294862449 -0.8212569964355543 55 28 17
0.5477981855578289 -0.1669556699711092 -0.7237209366713995 83 67 51
0.3941277065814592 0.5438137307094801 -0.2886005714406181 118 118 110
-0.5357954765689085 0.1352426409373160 -0.8900156364926325 70 74 77
-1.2980974571336121 0.0524204840835131 -0.2271623941901944 234 243 248
-0.1206602333004213 -0.3190655895447684 -0.1254269985813467 52 41 35
0.3170344970969973 -0.0339864463850601 -0.7374360036174800 121 119 130
-0.2155200175932337 0.3540657722658438 -0.9354942553725113 48 49 51
-0.2688567796169389 0.2764635074724219 -0.8800262438961090 2 2 2
0.2042067623434116 0.2884702817784227 0.0727698504018789 78 74 75
-0.3171079286907355 0.4273147304315011 -0.6951403820332205 88 70 56
-0.0106960990845624 -0.2000066480379389 -0.0395807538935667 79 62 52
0.0264217487332722 -0.1198555788036539 -0.4289943254499131 85 67 67
-0.3434779775271429 1.3089637181285356 -0.8188247509337550 128 108 83
-0.3366432684419292 -0.0990969865414396 -0.8371783212904019 132 135 140
-0.7662061753621495 0.0236541241228571 -0.9451763702486508 116 117 121
-0.7854597367944058 0.3513973888291654 -0.9271641183387295 155 130 100
0.5710331598993326 -0.3093835530087738 -0.6033139579091380 94 69 39
-0.3355177145711477 0.4691964617513446 -0.6554842820317291 175 174 172
0.5301589104485186 -0.4556635110483982 -0.3428810001937759 100 95 92
0.4242429828972443 -0.4088245635070029 -0.6148807424978529 42 31 29
-0.4180894810339461 0.4813176717864824 -0.7501231073592116 153 131 110
-0.5191820453734362 -0.1407898376364706 0.4049985554683244 134 133 129
0.0090221572719576 -0.1940799990185642 -0.2828109063455705 30 13 5
-0.0999353717955059 0.7100183468971161 0.7440758729747924 208 217 224
-0.0276354818869654 0.0917614351536897 -0.0017894928819641 203 207 219
-0.1464044894425152 0.7637571400810030 0.2833924104582988 173 148 117
-0.4680394212160283 -0.7798816638992272 0.3914632506766241 36 26 24
0.0666774684489959 0.4538627511375622 -0.5139194535766373 43 25 21
0.4101464971713735 -0.3681169945813929 -0.4426900798309565 118 112 114
-0.7639203499585612 0.1994634025441149 -0.9193811134340002 120 96 72
0.0311413268846157 -0.2162431511265329 -0.3058192870477744 63 41 27
0.1341431009285155 -0.3441649511236826 0.1372870160650669 177 173 174
-1.1249557357045021 0.3827470027445481 -0.1394194941395363 174 168 178
-0.2638768561811466 0.4420264934196538 -0.5522165791439724 183 182 178
-0.0946518450788550 -0.3524525391295328 -0.2276587080187800 121 111 102
-0.2671232941849585 0.3786572146181699 0.8189438817252870 144 146 159
-0.1656745540576025 0.3185572220429231 -0.9541375915004665 80 59 42
0.2367763888588637 0.3653875506319977 -0.8641054876003420 74 53 36
-1.0097807796872544 0.4330437260713995 0.7549768455208694 53 48 45
0.3232150674638458 -0.2630530986255020 -0.6649954845683975 172 172 180
-0.4715731234325111 0.4123596095764238 -0.7393252355988956 151 127 101
-0.7331650173719045 0.3555223043673658 -0.7916452851660210 96 82 73
0.3660035136893903 -0.2396889755651186 -0.6431101804970488 157 156 161
0.0589190032728728 0.0544222019647696 -0.3604933157106014 175 174 180
0.5663745831462417 0.1570316788822015 -0.3010268070345735 51 51 63
0.0880713740928242 -0.1952035844588296 -0.3184306470711193 85 67 47
-0.3363062901101950 0.0871720745545728 -0.9663802266943450 71 73 72
1.0681372940589240 -0.1610089761050613 -0.1367358191317276 31 22 15
-0.0753903519753589 -0.3356689515200976 -0.2431195395260234 8 0 0
-0.2067411112708762 0.5462991961414991 0.8676345632915226 184 186 198
0.0864540404259006 -0.3570744314190989 -0.3227591400930153 116 106 97
-0.3343956539946546 0.1675366975736016 -0.8430936879063263 105 97 76
-0.2606796158935850 0.2606250597080659 -0.9773434248759777 137 137 139
-1.0012577713966246 -0.3713269183303715 -0.9296904417012019 158 162 165
-0.4369988281936086 -0.3289963025680534 -0.8566578246037700 152 139 133
0.7066747016913156 -0.2138609310287333 -0.3127363682810573 97 82 77
1.0109018993126451 -0.1397960251187943 -0.3547917523897377 56 43 27
0.6800072268913622 -0.1247189869798951 -0.3854340152793218 100 83 65
-0.8899251758555099 0.0067138731448053 -0.9568644347075739 139 140 144
-0.5284420517683959 0.2726658429145661 0.8752284605572844 75 76 80
-0.1930740765609491 0.3288236580382662 -0.9618114690687928 32 23 16
0.6758728050491647 -0.2251669268169496 -0.4855130480085307 80 59 42
-0.9663786360047453 -0.1220371238657895 0.0121223327953449 138 135 126
0.8852399255413611 0.2067382504755674 -0.2894820428640857 89 79 67
-0.6404677507466732 0.4936899217770819 -0.1195401539593559 41 43 42
-0.2660357022707801 0.4261074785995186 -0.6850268634022920 72 56 43
0.4826393619116207 -0.1845291280876763 -0.2515825712483486 88 72 46
-0.2702225399797291 0.3030434500078261 -0.8843303676913196 84 84 84
1.1063641520412255 -0.1414562723391343 -0.0680335291433728 52 45 37
-0.0569284021194269 -0.0844076939010785 -0.4134679129137960 65 42 26
-0.1959517453341820 0.3654534415729730 -0.9534399705705903 102 99 94
0.2745511915985475 -0.7602158042151796 0.2014635625023905 64 43 26
-0.3121398544527949 0.5394290965187812 -0.3489392857407643 190 173 157
0.0388892165532522 0.3721989619436993 -0.4461901156290841 172 171 179
-0.4267338684545024 0.1421995905837385 -0.8713430661591900 14 18 21
1.3373264181690143 -0.0038522313594004 -0.2419603135013108 80 70 60
-0.3147634191198117 0.2683133710178776 -0.8952315911177793 86 68 48
-0.8079509001426365 0.1151055952031745 -0.8872173544436046 180 173 180
0.3875375879014615 0.1745864922531165 -0.7817953685428612 64 42 29
-0.4868484152702479 0.2744841500820191 -0.2371075119704262 135 139 150
-0.2832715123169871 -0.4664397256244883 -0.0152143936021064 65 54 52
-0.9728434085164090 0.1091591160066320 -0.9307578418771801 89 86 79
0.3996220303375602 -0.3057185996495833 -0.6507382601761378 42 15 0
-0.0805341068226405 -0.3290194122640035 -0.2247867126503685 17 8 1
-1.2360960512802865 -0.2627840618859584 0.0159920741030698 127 108 93
0.1132459158851750 0.5014160336194445 -0.5646689100718351 130 108 85
-0.4743944382636279 -0.3616358103421621 0.2179057286086406 170 169 164
-0.8657140560899986 0.0996963795380439 -0.9450079310269478 21 20 25
-0.9117672388856086 0.4018104103246745 -0.3279338131774271 124 129 135
-0.8195937123976453 0.0717304171027798 -0.9261601614904733 202 203 205
0.3845326529517432 -0.3524112872238727 -0.6521321447344898 82 71 65
0.0446273254499279 0.3629536480048785 -0.3792203990343811 169 169 181
0.2883968617644822 -0.8160968808136992 0.2206492817827130 64 45 30
-0.1879936979372936 0.2733976156597313 -0.9558327840039195 104 102 103
-1.0645297132884670 0.4377240837263453 -0.1800431532904656 98 103 109
0.2553860927096914 0.5525383826231903 -0.2792446296630058 106 105 100
-0.2125845282047251 0.2477579007487398 0.7182427488976726 174 178 190
0.4462093335659785 0.0238843370712666 -0.7042197420737101 30 31 35
-0.2896880168191151 -0.3443930043258597 -0.8341811512480485 160 141 127
0.3632678724212330 0.0188215658595681 -0.7425258361579193 98 70 49
0.2981236871455682 0.3481998887562863 -0.8098784607802560 62 45 27
0.3303073559567478 -0.0343984567171446 -0.7408816212436546 141 135 147
0.0545760676297057 -0.2253454256426211 -0.2395171536252999 77 62 55
0.1580831851203166 -0.3094582568372587 -0.0207018231245955 71 61 59
-0.3126610065903052 0.2361890377335455 -0.8822301580139871 114 97 71
-0.3428022022866271 -0.0796763886343367 -0.8429682645896266 74 78 79
0.0605046932953860 0.0272958907879203 -0.3363053142561545 117 112 116
0.7076187032005880 -0.1427330181758789 -0.2192080196780313 98 80 66
-0.7010612090845597 0.4351292167448066 -0.4558252178488770 185 183 186
0.2942438440927626 0.5799262599184851 -0.1648734840928547 126 122 113
-0.0917059153335016 -0.4053833481387025 -0.1500575599077026 71 61 52
0.8158828530006758 -0.2378725800904383 -0.3484183326013351 119 101 97
-0.2680118597375985 0.3447363157557869 -0.9014430531958155 82 78 79
-0.9064691092064213 0.2799519058145885 -0.9545165025684306 122 100 79
0.6727859386896949 -0.2592398651024916 -0.2518373683717383 41 23 19
0.0974714056737015 -0.3392278848738480 -0.3034360215597775 25 14 10
0.6546534927453406 0.3016495876754528 -0.7948249976870583 19 10 3
0.4022359005270458 -0.2734437166533257 -0.6575974263860690 97 72 67
0.8286527885426008 0.5576437782856352 -1.0172133868231279 101 95 71
-0.3724185997551147 0.7253635293148163 1.1628829701159704 16 7 10
0.2785370346318353 -0.0142537206715786 -0.7438102992799381 202 169 162
-0.3322952459300421 0.1592068508850671 -0.8237799239167126 51 38 32
0.4787006560351864 0.4249504283253725 -0.2291693767955493 63 53 51
-0.1407473836231530 -0.1091500154479048 0.6026680085059707 82 63 48
0.1074274955932996 -0.0396262274247316 -0.3785596013656166 141 136 140
0.3550938527483434 0.3834564113967780 -0.8352375932404642 59 40 23
-0.4769030689508427 -0.0961869615184084 0.6960603688355138 116 107 100
0.1703298189653547 -0.0636079265702075 -0.3719136310481623 52 38 35
-1.2823763984888374 0.3533900322500186 0.2937623381607898 153 157 158
0.2835939134151075 -0.0227732730411580 -0.7477205544110769 51 11 22
-0.1989636946175471 0.3210749888996359 -0.9269369476525385 80 70 71
0.3962358473679370 -0.3583808821652900 -0.4206466148894398 114 105 106
0.6421259283659200 -0.0846630038406500 -0.5729108233010122 38 24 15
-0.2735037093340161 0.1493010777203837 -0.3282737457109549 131 138 148
-0.0000803500420065 0.5433720479671806 -0.2190180802709787 102 79 61
0.6224572958270018 0.4638133815411800 -0.3386344990845389 70 60 58
0.1757147109134104 0.2292668977600093 0.1104052470173164 181 179 192
0.7100328649439284 0.4013668667642442 -0.9052084303308753 57 48 49
-0.1934828453847176 0.3373012813854774 -0.8650423114127656 63 35 32
-0.2858995098439855 1.1844781704622069 -0.7353074288097727 24 13 7
-0.4169144344456873 0.3734856978366949 -0.9014150338611621 124 98 71
1.4488608040310444 -0.2546423423343351 -1.0674506380040445 254 254 254
-0.9629607906202361 0.3198500917015344 -0.2993444195811731 142 145 154
-0.3449654065656503 0.0774501058815968 1.2029725617553830 28 15 7
-0.3251878689490957 0.1049272163006661 -0.8591964920751476 14 19 22
-1.2778181229507137 -0.9019893805805613 -1.2668667964216689 153 147 147
-0.6323229876294314 0.2799424945800704 -0.9147119236602792 145 119 96
-0.0092238502438523 -0.1130395276509703 -0.3789280531474484 170 161 166
-0.7800582777460365 0.4640379117458036 -0.3621032982116714 197 201 202
0.4178635893015129 -0.3526214944352223 -0.4439459695310379 132 129 146
-1.1745578010448070 -0.1785903564778978 0.2284234967360182 103 99 90
0.1030625608059414 0.5144861546936137 -0.5402890311091848 100 82 60
-0.7165631400047424 0.2783801869339135 1.2992351972882452 63 63 65
-1.4643730634052476 0.0641934739085721 0.7184891188750651 67 67 57
-0.7786932966561059 0.4181324008394222 -0.3017603111080522 11 20 17
0.6985110879552129 0.3909892016400051 -0.8601304202832289 24 14 13
-0.3221047622332817 -0.1306065489197853 -0.8011630310004113 14 17 22
0.3202872442307710 -0.3369845389186594 -0.1955878419424065 54 40 31
0.5674481491648256 -0.1130954147617023 -0.7379608923916154 46 30 17
-0.6917640334276407 -0.1466902828116273 -0.3748951304513601 83 60 46
0.3679998680888945 -0.1411162894333155 -0.2552047090843702 15 9 11
-0.5327566202255064 -0.3588956858422173 -0.0825058944999944 156 148 145
-0.2649350522703286 0.2998324471963438 -0.8815857955342039 79 76 69
0.1868971800551234 -0.1559128537072298 -0.3361083797311194 73 60 51
-0.3274405238124415 0.5789625896405691 1.1074564046366220 150 149 144
-0.4888897619623449 0.3917296626992076 -0.9246596682808703 143 118 88
-0.3378455801714476 0.1491801912255703 -0.8302024017518934 52 51 57
0.2594893556211739 0.3421475704164402 -0.8127049945761484 62 43 26
0.6743937549536716 -0.1764743730886396 -0.1944478133187307 74 57 39
-0.1689692222895358 0.5636841675814722 0.2426512277675194 83 55 41
0.1730090281387369 0.2020807358838237 -0.8414653987212505 131 131 139
-0.3245711281387897 0.1013750362672325 -0.9635404652552910 79 81 80
0.0579614417272753 0.4810861767533509 -0.5147059300500987 39 17 0
1.7085395716867096 0.3360382414199129 -0.3715245889961029 47 38 23
0.3068287729258287 0.0129346796412312 -0.7378195681797447 179 186 194
1.3082057956078288 0.2826846764673560 -0.3156144013643625 65 52 43
0.7282843058295818 0.3983050491308255 -0.8537420344040242 49 40 35
-0.4424381680918477 0.1365501873148833 -0.8442291451899753 53 48 42
-0.4909005713093131 0.4111621543801557 0.0580799734096871 181 184 201
-0.3841107295717572 0.1812407567077174 -0.9303657960497521 47 35 37
-0.5698635455786526 0.1623128874240418 1.4955036781673268 72 63 46
-0.8101664225158427 0.5288489774393165 -0.3206180341373253 194 197 190
-0.6082578613172053 0.4504786399536488 -0.1972847788511989 28 27 25
0.2920213105409999 -0.3854459716616316 -0.6687193852412734 56 37 23
-0.2461502139644703 0.3642600876942348 -0.5861510409961290 169 160 153
0.2874317437014385 -0.0052021412191107 -0.7508914116651081 72 20 24
-0.7932430623757663 -0.4005384673603896 -0.4728460517170602 35 25 24
-0.6189236111117582 0.5129507090113176 -0.2146872412874567 191 190 185
0.2818472441571445 -0.0411088484912999 -0.7379739202613985 114 15 44
0.1743679097999402 0.2155656163918068 -0.8466969073570662 131 135 138
-0.7862399200582969 0.3743442875173069 0.1720441306431103 110 116 128
-1.0731100011362422 0.4330988123790217 0.1956401129365603 74 79 85
0.2413619410230234 0.4046025098078800 -0.8562569502364721 106 84 63
-1.2262245133951601 0.7140685760665604 0.1562839943327604 86 91 85
0.2776773393409367 0.5423260858150752 -0.3815228641209960 154 138 123
0.0719990522978432 0.0817776290158579 -0.3364384810292360 165 169 180
0.8787007236091970 -0.1301611667092467 -0.5646968037381762 100 80 53
-1.0871563873501338 0.6202320295050338 0.8226653910807971 168 172 183
-0.2645972742015049 0.1759619855264459 -0.8616917822639202 89 70 53
-0.3323864808725356 0.4009366688359599 -0.9052113083836446 116 94 71
-0.1868670690976332 0.2988780891726911 -0.9596425649748299 41 29 13
-0.2249610005849097 -0.0622147041937698 0.6340556918641791 115 105 95
0.2166528752291544 0.1506137647558502 -0.3760335007712009 36 17 10
0.7399012633587285 -0.1588427139001307 -0.4851942727807494 39 28 22
-0.2803875519430488 0.7178581072441557 0.8045624979879910 145 146 141
-0.9701018862184887 -0.3317874261414887 -0.5757819928747676 69 48 21
-0.2571845347226892 1.4585636044236652 -0.7573221699322004 51 33 31
-1.2254892206866348 -0.1119752890442631 0.3950506636448767 132 137 131
-0.7728841317344567 -0.1829661898716388 0.2676249608388991 147 145 150
0.5247884332297510 0.4611419055889326 -0.5169032698316709 73 58 37
-0.3045515467984420 0.2580940198826725 -0.9624454112726305 50 47 32
0.0543367355087939 0.4290314367742257 -0.4517651805642881 191 180 184
-0.7882840452434756 0.3789250625646722 -0.7724768466381791 165 164 160
-0.4588071630764022 0.4047076039927492 -0.7290193226997010 92 73 58
-1.0775588641235039 -0.4379908008902135 -0.9502639483001076 174 170 159
-0.1441689517791691 0.3480549956949023 0.5699705900621486 110 113 122
-0.3904256623856368 0.1604263714168442 1.1526533435215285 86 73 56
0.4226618236593783 -0.3366424849341631 -0.4951927037692890 114 104 105
0.2352620637167069 -0.1897372149177470 -0.6531510516291099 82 63 48
-0.4797529373138970 0.2441371113910883 -0.2013095031626923 98 102 113
0.0791979469230056 -0.2486837373022372 -0.3379252634703505 163 150 142
-0.4424568993741521 0.4447624663889100 -0.4871016454418619 178 177 172
0.2867934534705454 -0.3832258078159642 -0.1756257970006694 61 38 30
-0.2633523435246480 0.4084138139667616 -0.9470064630869158 124 105 90
0.9671166911063258 -0.0084432886447300 -1.3321169045595864 16 17 22
-0.1866806730921658 0.3833451559379822 -0.9214285128528367 119 95 67
0.7013987901317642 -0.1696693512973987 -0.3488936928702477 118 101 93
-0.7133588398372246 0.1087095369164838 -0.9584832610802237 62 65 72
-0.6213954042093350 0.4861087349039883 -0.3476408444446125 197 199 196
-1.4948960247308234 -0.0319252911322286 0.9490561210057545 117 108 101
-0.3025257106037311 0.4555932410852118 -0.6733238893256562 214 208 208
-0.4816544069242953 0.2230566629552736 1.1623550248296053 21 9 11
-0.3434362750647402 0.2346459256802598 -0.9163004451985679 128 107 86
-0.7069926504696677 0.3686204791524659 -0.4013247424302052 97 102 105
-0.4168662805146289 -0.3554410773252915 -0.8653467812833505 132 129 124
-0.2307586780170835 -0.4259899466970024 -0.2205019157577862 113 103 94
-0.4408326668648198 0.1246188396565360 -0.8914109288219938 5 12 20
0.9800367554927004 -0.1888072205007403 -0.4179192652275531 24 15 10
-0.1177772173957691 0.4635486465706428 -0.8383183790881089 31 30 28
-0.7126275529906486 -0.3878704074302738 -0.4738579392921120 145 136 127
0.0739536544666173 0.0102504486203488 -0.3882000327523802 101 84 68
-0.7777317948500505 0.4078678146907933 -0.3425644192238685 159 169 168
0.3598367036572707 -0.2619216944997901 -0.6767908421461653 108 98 88
-0.9804383372290898 0.3689001925967277 -0.2674150534130693 135 139 148
0.7384712134789878 -0.2065164939479869 -0.4982649756605714 75 57 43
-1.5638719202214941 0.0676367075354996 0.8064139250416573 71 73 68
0.1920089335842228 0.2445996484084351 0.0924996256108581 202 202 212
-1.1090420233473197 0.3949732187927433 -0.4419189578711538 49 39 30
0.7391430303611721 0.1581148374951714 -0.8325734124791694 48 27 24
1.4134257053286305 -0.2591587045240142 -0.3630590941576285 29 19 10
0.1130458928073704 0.0155824567677466 -0.3282471662586252 111 88 70
0.5636874656621302 -0.1501763117685837 -0.4681108535944499 103 83 72
-0.3310681776659344 0.4503827945099186 -0.6945006545367119 162 156 158
-0.5167485187097807 0.7890318288019571 0.9758612072786753 72 60 60
-0.2381151567004627 0.2989854585039321 -0.8773951391565808 54 54 52
-0.3474092778094106 0.0196319172988564 -0.9245231426389584 56 57 59
-0.2642069581518464 -0.3558970128330127 -0.7840899068241927 60 41 24
0.3712065582504517 0.2363376702821382 -0.1216808231168154 146 141 138
-1.0870316688770079 0.4158156922551327 0.1180419263947729 92 97 100
-0.5397594623308123 -0.3815590964226261 -0.1140870762965574 156 148 145
0.9351753471456018 -0.1423429285961964 -0.1904008896335172 70 60 50
-0.2768206036651529 -0.1230332422939253 -0.8667774138706607 88 71 63
-0.5514102922737456 0.4103607531969704 -0.7564769113032702 124 109 88
-0.4265389201231420 0.0916019622903982 -0.9772138115744642 51 55 56
-0.3411325418102240 -0.0122732400778472 -0.8603297346640782 49 53 56
-0.3893829580669301 0.1385715043937198 -0.8440729993504404 50 51 55
-0.2099127808889083 0.0071564675485691 0.7160134603342065 91 82 83
0.4430398895182653 -0.2011720895238578 -0.6968336621689837 103 90 81
-0.2303309372909741 0.3055015244903823 -0.9158775830301591 19 17 18
0.1931233771135532 0.5042045179073918 -0.5700939258762645 113 91 68
-0.2892805347726073 -0.3991175955896178 0.0392569457654757 83 73 71
-0.0161334113960667 -0.1706181215691918 0.2225965042297871 151 141 149
0.1914843325256292 0.0190510407343464 -0.3043303495133383 65 44 39
-0.2999861966017339 0.1631909251661705 -0.9332978004611773 84 71 55
-1.3431277279442269 0.0545000189095065 -0.2113676287372221 203 206 213
-0.1565296728755846 0.9522469509122329 -1.5248580954195476 82 59 43
0.7449541056412727 -0.1616387059413304 -0.2400158404089803 64 48 35
-1.1302107032916751 -0.0883740783023001 -0.1159872999966308 69 17 21
0.2927916434612693 0.4579853222913972 -0.4985448211115079 103 79 55
-0.4954877962650042 -0.2921129557058518 0.1359813694903576 202 201 209
-0.6730327629212965 0.5007551793641487 1.5759584843513357 96 103 113
-0.5552510399921771 0.4074548475597130 -0.7470832018752908 175 157 153
0.1464101265550068 -0.1304201463818524 -0.3375348882167182 146 147 152
-0.1649773409329654 -0.3472133876443317 -0.2987169861493233 126 117 108
0.2422040437133503 0.4959464291481503 -0.2931650825379549 129 126 121
-0.0009339769723997 0.3126798829722762 -0.8916276539470070 82 60 39
-0.5707527730998885 0.1007724413083509 -0.9079096794020022 10 11 15
-1.4448563206733798 0.1452139403791030 1.1280465929686692 177 176 174
-0.2419508071928861 0.2577656549260417 -0.9461123667481394 7 6 12
-0.5447469436833012 0.3362637369978884 -0.9382628811168880 149 125 101
0.3966243078771157 0.6124178290761817 -0.0173192856941089 113 110 101
0.6068635673890279 -0.3856503752394106 -0.6279918208744927 171 149 136
-1.4370774592285256 -0.2731899681126960 0.2409608556015058 117 93 65
0.4056670756366763 0.0285676949354109 -0.7214912147805433 13 17 20
-0.6786201447682337 0.4766671802892806 -0.2142179742012300 178 177 183
0.0191662291661700 -0.2787687178318829 -0.1090978870930685 38 28 19
0.3168525135164304 -0.0393875110959879 -0.7362909756462853 202 206 215
0.0794742633746691 0.5118116825786849 -0.4699787835589421 82 60 36
-0.7303228266995252 0.4328138937956379 -0.3788612103424388 223 224 228
0.3340286296757047 0.6174222146777333 -0.0489129182126043 123 120 111
0.2624220713786589 0.5214206783232559 -0.3380693558465244 109 110 104
0.7312097116117785 0.2065425766151777 -0.5015339388109327 71 46 24
-0.4918337484019065 0.1177422803685845 -0.8860190826381489 1 2 6
0.3510223072046865 0.5548352340323818 -0.1684297412896064 132 129 120
0.2928907940588049 0.2598975206198098 0.1620049509046697 131 125 125
0.2586275433255062 -0.3241964147306715 -0.3182207945214245 92 79 71
-0.4951198679155104 -0.2254804834974874 -0.7873461091153245 185 174 170
-0.3039422039191702 0.1376907851743039 -0.9262782596880216 123 110 101
0.7236811480674198 0.0471440150069162 -0.8008837331355088 17 18 20
0.2182322798247175 -0.2204997845800481 -0.3056525044615701 47 24 6
-1.5242236473025790 0.4816719754313141 0.9716789005355572 66 58 37
-1.0111535359973138 0.5449556874475869 -0.0542342712358955 77 77 77
0.7184796738392091 0.0474550278351496 -0.7976908505752356 16 11 7
-0.7320545679777940 -0.4072652536063750 -0.7080899866982906 160 152 165
0.4414673508304280 -0.3582771435519016 -0.1512470391981227 77 60 53
0.1726882386453006 -0.4978502003235409 -0.7102749351367059 74 47 36
0.3550705394877742 -0.2039536855144979 -0.6959812362905196 157 161 170
0.5142539433832995 0.6258712952922544 -0.0032630408475592 82 82 72
-0.5816775908569489 0.4729817737715512 -0.2052407589265554 204 202 205
-0.5797931939134034 0.4416987055865081 -0.6278187479166639 182 183 178
0.6521837184636272 -0.3595477451666392 -0.5531206967151360 49 32 25
0.6969401640775539 -0.2250321469509543 -0.6048468158560418 17 12 18
0.1837218704346129 -0.1541803158819641 -0.3305653353447139 118 96 85
0.4480102101160692 0.6122441772755454 -0.0230704395372238 82 78 67
-0.2890605420170714 -0.9018546126215850 -0.9105154884875273 61 44 26
0.6591941240999346 0.5158794174555213 -0.3875887169318483 31 13 3
0.2609956083813002 -0.0771971125392620 -0.1512266893324088 160 150 141
0.0575208303835897 0.0369636608363804 -0.3582758587794203 183 180 175
-0.2914068994302341 -0.1013175700768500 -0.8850509529105912 102 99 90
0.6847805034508369 0.3346765714405774 -0.8821860896149979 49 21 33
0.1184860193610685 0.7185355868617345 -0.3763397852252335 96 73 59
-0.3682842046747355 0.5181839135088037 -0.6546464235880256 212 201 199
0.5799994505120762 0.2419801901115292 0.2058575393016765 201 190 184
-0.7091078185039185 0.5206971892401256 1.6470779244312430 102 106 115
0.4035812082678519 0.5728158658061282 -0.3294499196567718 134 131 126
0.3630100348025998 -0.3551396450321520 -0.1802482424827708 67 50 42
1.0625526043487232 -0.2688122576840474 -0.4377335272433451 27 10 2
0.3252575592311820 -0.2479455408647497 -0.5993412348616902 109 96 80
-0.0729685479463263 -0.3226073174640204 -0.2721365242744682 160 147 139
0.4018871616495360 -0.2955357575455878 -0.3930873097540946 157 154 163
0.0808848247787592 0.4708219899993995 -0.5621709775720809 170 149 128
0.2927020264298740 0.5514448103635313 -0.2922531948827124 111 111 109
0.6973873087223287 0.1347104440025706 -0.3193869100785661 28 19 14
0.5180930963509902 0.5772364285221010 -0.1415965928800981 91 88 79
0.3276720416661633 0.5436669177032117 -0.3106807622332325 117 117 119
0.2709764419063269 0.5547049410615278 -0.2917503132506566 119 118 113
0.8552157317214778 -0.1272084755355514 -0.1181914308851338 99 85 72
0.7519786326524391 -0.2181558702514473 -0.7224153537541578 43 37 25
0.4201453327789417 -0.1571236521315855 -0.2150320262646722 16 10 10
0.5593741046804294 -0.2271778756799648 -0.2310368078511084 62 44 34
-1.3677741475089522 0.3744294754387322 0.8627144908702066 12 1 0
0.8763148846041304 0.6425389856381255 -1.0615242226887676 78 83 86
-1.4689269780019585 0.4063412511662874 0.9882295155585862 19 7 0
0.2271518895214995 0.6164934316755182 0.0511240360042693 53 51 52
-0.8791181030500703 0.4379740283416861 -0.2308708697126651 37 39 36
0.4847607193560992 0.0260320489620829 -0.7215130118626406 63 64 69
0.8343873199511066 0.2634673048291651 -0.2483661011218830 34 20 7
0.1968962178051222 0.4319104572755983 -0.4736231122676013 63 46 28
-1.3351669025519302 0.0268713497266170 0.9355698724083631 51 38 30
0.2396746697951252 -0.1393591747876242 -0.2382569019479942 160 159 157
-1.0929218439463122 0.4002717219907944 -0.4878739787184753 81 58 40
0.1002737294914317 -0.0432912026543135 -0.3856314858942423 96 70 55
-0.5366003507456758 0.1220588495768124 -0.9273750483010100 38 39 44
0.4092434430233781 0.5374753571890993 -0.3766407115091856 120 103 83
0.3365235872372070 -0.2486474853820660 -0.7068819490610255 155 159 171
-0.3007816105657894 -0.0931383304405128 -0.7662356229647511 23 26 33
0.1741924827797552 0.2005531116505809 -0.8350554134632290 0 1 19
0.5609160865916639 -0.2966920898023338 -0.2090786565637923 72 63 56
0.0835292308862277 -0.3307770119207492 -0.3215028938489045 38 26 26
-0.3561475231187454 -0.1022974873560085 -0.8171363889711557 25 28 33
0.7984845063287467 -0.1979720912232157 -0.4634800173612157 36 18 6
0.4696641463109822 0.6215794847359938 -0.0200779223148167 124 120 111
0.1064441746534078 -0.3696120418601989 -0.2656425502678225 37 18 11
-0.3184514519337262 -0.1746865128268235 0.7138462845962824 145 136 129
0.6977554210766563 0.4615917905862250 -0.1957466793473061 21 8 0
-0.2473729762955196 0.2912176688198096 -0.8720898370587210 47 47 47
-0.4444468637555239 0.4211852438628015 -0.7297143485591503 130 109 90
0.2258059019078539 0.3848112544187280 -0.4455429066894834 137 120 110
0.4721072432416516 0.3790112471852896 -0.2020935801299738 203 197 199
0.2774571177054855 -0.1794342443461895 0.0820791293423458 177 167 168
-0.9099888741929957 0.2077235159384674 -0.8710688465954254 149 144 140
-0.0853268125717309 -0.2213401159283234 -0.2794717540013096 163 152 148
0.2507479648691029 0.5587157989330921 -0.1612712573209128 121 118 111
1.4933414379869729 0.1903211448357264 -0.4790486759980246 83 73 63
0.8755559195454383 0.8723281887821485 -1.3439941446740549 242 247 251
0.2274103224690331 0.3915146691687181 -0.4465384909326969 106 85 64
0.6404629042113097 -0.1722690512955712 -0.4074773742495633 115 103 103
0.1453640821278451 -0.1343281324186462 -0.3378403353796916 174 175 180
0.0526234598539793 -0.5992772951998098 -0.7742077700855259 77 54 38
0.2729849547452671 0.4969287592760784 -0.3958761183739866 139 126 110
0.5013825374693709 0.4665172920129698 -0.1668068150101967 75 70 66
0.3872819372172991 -0.3531915766272253 -0.4172721060191523 146 135 143
0.2655234226130229 0.2545573741711564 -0.3941618133414874 115 111 102
0.3061208024342905 0.5605689379664628 -0.1558585954490786 129 125 116
0.6667246606836945 0.4099132271247564 -0.8538726968884333 24 14 4
-0.3470977118020287 0.5809016300033545 -0.3521525425463706 181 177 166
-0.1231647475019044 -0.3438606168170617 -0.1140035352004767 161 150 144
2.0310015647521631 -0.7665036568632165 -1.4932330316258737 38 40 55
