ply
format ascii 1.0
element vertex 698
property double x
property double y
property double z
property uchar red
property uchar green
property uchar blue
end_header
-0.5054471075136368 -1.5771418770151013 5.9755079558821400 62 25 0
-4.7169529452100107 1.0871410616346437 5.2723558757905060 110 76 28
1.0236397716155075 1.5936444725233148 2.7522931941077635 39 43 54
-1.7050951874355169 -2.9745789201300452 6.5300318130897654 225 192 161
-1.3948270225727049 0.1350781316873193 6.0163792920023642 86 38 15
-0.0722024605638349 -1.7800668993832673 6.0371118627692617 125 81 42
-0.7407935665381107 -1.8039933090883491 3.3958470738103714 32 21 19
-0.4299747029052040 -0.3440957254658633 -0.1242295474125175 78 55 41
1.1170113888059394 -0.4008511287283752 3.5794567690714625 67 63 64
-1.3860315895945206 -1.3635111770531267 5.9586571097889092 81 59 38
-0.4576602843041601 -0.3700103994464781 6.0430211314202902 70 41 33
-0.8746980870371576 1.2117759063765836 3.9995611404137805 216 225 224
0.0528468737135261 1.4435318657303597 3.9931611504485041 31 32 36
-1.6441448723571088 -2.4863916221573534 6.5622004249127555 254 227 206
-1.2716463986557802 1.2068653489855183 5.9522861699245313 64 37 7
0.5607915054255003 0.8804079436914876 5.7700410160927786 111 57 13
0.5106676712680218 -1.2192021895087697 2.1394757463482712 107 90 74
-5.2270240809269106 -1.2026030306244833 -0.5922731568776308 146 93 51
-3.4984992565560646 -2.9499493085287427 7.5780748785959320 205 173 158
-0.0416467673448038 0.2571430128399559 5.9935663657247389 143 122 95
-2.0758770283293764 0.2456202273155379 5.5194077538921213 108 79 63
-2.1080306157132771 0.5348224956303417 5.5104705914402370 55 24 3
-2.0504327985613209 0.9281022909262743 5.5136722824435971 110 85 63
-1.4718771957555554 -1.1384328629585609 5.9759168036464558 191 163 139
-3.7956407807637769 -2.3315980113983401 -0.1718417921218367 135 109 86
-5.7882875713815425 -0.6166582191438172 3.0832067835222521 205 185 152
-0.3481658933712941 0.8695163868839834 4.3039204026088491 58 59 63
-2.9241934775702503 -0.3115841779087568 5.9588867985603784 81 62 66
-1.3831115568829200 -1.2995850029038081 5.9888889773179521 240 222 208
-3.4628691822008784 -1.8182412246447979 5.9655314560874935 124 71 31
-3.4462118287883157 1.2800384464394150 1.9950034456635970 40 58 68
-0.7981057272446016 0.4807458482725090 6.0198771475458575 121 108 100
0.5393259320433091 0.0179224477388462 -0.7272365512024069 67 38 24
1.1011811192023269 -0.7129671095190069 1.8732629589051970 109 101 99
-1.7026993360078739 -1.4241640194129774 5.9796550315131363 199 168 150
-3.8945117654145487 0.8230626267329616 3.0510671615315110 21 7 6
-6.6490787291717277 0.1369874295226285 4.2359831174022400 200 178 141
0.1376052059612343 0.4302504808908102 5.9619531636976388 119 95 69
-3.7957800497343457 0.9965938619022421 2.9959462819046339 205 211 243
-1.5759760513840650 -0.0006578154113672 6.0390623653933808 103 76 65
0.5452539285501076 1.8908429047933148 1.9566926188109313 29 28 33
-2.0984997646804002 1.0009318209675504 5.4889825441146574 158 133 111
-1.6515055032618853 -2.1242239509018104 5.8601210350446706 154 134 123
0.6838720376532286 1.5260727854781664 1.0419677368233460 62 62 64
-1.7215373293736145 -2.2165963708492877 5.8890530228368929 128 103 81
-1.4710887067296712 -0.9914079973673825 5.9874398081616320 102 78 76
-6.1763956717055590 1.4704513848450333 4.6389627786284677 49 21 7
1.0294374288123020 -1.1929823521091973 5.2132687346610753 95 84 80
-1.7649189231172648 1.1780274992658437 2.9159525000474580 84 67 23
-1.4405333534918310 0.0297815212618616 5.5799348306929897 31 10 5
-2.0465820446670131 0.1711584999903922 5.8697274293754180 28 6 0
-1.4624932073519621 -0.7630545508068726 5.9861419856640046 225 221 244
1.0582899691155399 -0.3478445418723081 0.4949510631474937 68 60 58
1.1411946866020388 1.4434047444216866 0.6621901845378566 41 39 40
-4.0322177334669931 -0.8751784409962832 5.9830329859908815 158 140 128
-1.8659510284922203 -0.8999976617821817 6.0087216868569673 168 159 164
0.7025646105332944 1.4874964130220540 0.9605431163864946 19 18 23
-0.9274289971561014 -1.6090875626429633 6.0124092829690303 93 61 36
0.3317766055702904 -0.3478620122736847 5.9859480056931300 70 49 28
-4.1334932053276745 -0.5234379385988895 -0.3958227497534283 149 124 117
1.1061260761145792 -0.2308528406153945 2.9105624662961556 57 57 59
-1.9729142330472220 -0.1102871078312305 6.0167612509592461 190 162 151
-0.1616074162356733 0.8564437787747681 5.9780914324176582 107 55 7
-2.6494574885818816 -0.3115437594718141 5.9498870345854824 74 39 19
-2.0597018558927038 -1.8831242462128936 5.9905046580178984 168 123 94
-1.9565977929149232 -1.8041684197766552 6.0261522753693502 66 30 4
1.0347811581849362 0.3172955114106626 5.5360739128249703 37 32 38
-0.1349525978501712 -0.2771691023680334 5.9206677489459114 152 102 49
-3.1497117814991888 0.7596605923914723 5.5316161441243175 102 77 55
0.1769138061982404 2.0766905859826896 6.3735100445723232 107 84 52
0.6175132889434002 1.1821906199078678 4.9718796312364217 129 115 76
-1.1731541759036366 0.5596556981732271 5.9640330225655047 77 32 11
-0.3294601749868341 -1.3835145785186680 5.9724931649730078 255 245 218
0.5319510521030018 1.8774813081510795 3.3686359673249648 22 23 25
-0.9875447487224893 -0.4685669833903252 6.0085145351842479 78 53 49
-3.1067378795884379 -0.3212622340419397 5.9753008296250583 113 86 67
-1.9308664706689203 -1.4853265017495121 5.9638835185135930 176 141 119
0.2113278370920110 -0.4577977431945218 5.9734166527438415 146 125 98
-0.0281656782928561 0.2475141095985586 5.9423594520208738 137 103 66
-0.9731123978496193 0.1882298576399967 6.0240860891685992 145 115 81
-20.6466880764429135 19.6360612362914395 -7.5089901717104732 189 157 116
1.0502786651226574 -0.2318377256262787 0.4107150219817824 72 67 71
0.1752093203904943 0.1550959166176214 5.9546312637964958 164 123 71
-3.7604522488568661 0.7880735063534566 2.6119297490774520 88 49 50
-0.5121342032605878 0.3689268945655162 5.9685213600227627 87 61 48
-0.1786172040463501 -0.2123146960185207 5.8992950505301032 143 96 44
-1.7169547226168707 -0.1917214162100484 5.9787091846999276 111 78 69
1.0966653787772267 1.1303241817455782 4.9358506366250774 119 63 40
-1.0864346390573800 -0.1837904812099642 5.9820188415877844 83 49 22
-6.0883055822023842 1.1732842149547389 3.4895854488968454 133 109 73
-0.4588797383997796 0.6680478618690021 6.0306486405015818 71 49 28
-1.3853469296781531 -0.5919507234924128 5.9789060645481094 146 132 149
-4.5518414488552423 -0.5572631808425615 6.0265996249190312 151 132 128
-1.4213330264605015 -0.7368736878364870 6.0303949668717447 165 167 190
-2.0414781253814080 1.5044344073914906 5.2333414994953253 166 143 112
-3.3323303839456342 -0.9210211120232326 -0.4523836176854996 207 186 167
-0.7306784335760597 0.0361696286590126 6.0095247375265153 145 116 110
-0.0996365261754422 1.4383132378597083 5.0455967055047308 34 35 37
1.0846124823138872 -1.0975492451703321 1.8648321712707905 88 75 69
-1.4068938247773761 -2.0653574379090998 3.7780463243444786 195 187 198
-3.1899278139940668 -2.2491363411719711 1.4689709599645142 122 107 102
0.9870981168446348 1.5614864254175971 1.5812724919556087 42 42 44
-2.4175540237389086 0.8918342379004756 5.5260135909700443 58 31 4
-1.1657512403593440 1.4713433952799759 5.9844305049089552 128 104 70
-0.0778556656827623 1.4744221977129646 6.9056273589424508 106 77 59
-4.6307151108249611 0.1790574271823368 5.9603767753186938 60 23 4
0.8932705927459362 1.4692764177247046 -0.5575556209991918 15 17 12
-1.6106670939269230 -0.1951216397372642 -0.3800569058161997 185 169 179
-0.8030060946524606 -1.4189908941396394 5.9486931242380408 91 54 28
-0.5171496463405262 -0.9725699906795076 6.0313204335190171 125 93 82
-2.6642036748925797 -1.4237185301883137 6.0248290555424413 93 82 86
-1.5253630397299027 -0.6735229362740321 5.9811039281063261 66 57 62
-2.7233855532377196 -0.4504975707049169 5.9762042949975900 180 161 154
0.0441295986025843 1.5000018064242733 5.6155129434208346 14 12 15
-0.8374751086783750 0.5950020990728884 6.0000806534806319 87 59 45
-2.2858267855935037 1.1867866269631340 4.7475897839101533 152 125 78
1.0233096853775618 -0.1297717724632617 5.3577364818105186 59 53 53
1.0766656492925690 -0.9989599906844365 3.9464070023031437 96 88 86
-4.2334362759494510 -2.0030782374890803 6.1798871848527002 209 175 150
-2.3430475873856196 1.1453836630950238 3.6304099720952321 189 176 144
-1.6070813271740845 0.8762187540814360 5.4996020966105030 103 85 71
1.0579168100584948 -1.0094319597891186 4.7113215575077838 101 90 84
-5.8469608681792984 -0.3446080863827386 6.0138640673836301 114 89 58
0.1100197902940656 -0.9256655379022835 5.9011947784137684 89 47 7
-3.4457781014404012 0.6058723251863113 5.9273267173192048 19 5 2
1.0802159097292439 -0.0451409532143889 0.4231152788957370 51 46 50
0.8412912597553297 -0.0838221067510076 5.2632003462076957 84 80 79
1.4810075550286210 0.2504684675333998 6.1029930432319448 112 80 67
6.1961768689754697 4.0722259354447301 -0.1831515072467068 144 135 138
-2.0277669692705467 -1.0276600317890101 5.9779559946956171 179 155 145
-0.8715293522026943 -0.4227018589606937 6.0047857673444476 182 163 157
0.0017272426086305 -2.7793828167069923 7.3473139813772850 99 65 30
-3.6644886668137868 1.3422912080872078 1.0107875983841283 172 135 93
-1.0020585806793598 11.2336959425693905 3.7897255636786698 86 90 101
0.1002764588187206 1.3096043134412951 4.3282851650371921 40 38 43
-6.3214164387269021 1.1740745183512897 -1.1594434664068007 118 66 27
-6.4021831875196558 -0.2763261879776108 3.8439038228668498 177 163 128
-6.1939667178340443 0.3712135793222517 3.6851744167822984 245 224 159
0.9962740994010072 -0.9891665818777799 4.7196441837281364 65 56 51
-5.9556962106438549 -6.7842531493776495 10.5778603714887769 59 23 7
-1.0014425264268851 -0.0998759047199339 6.0228343019927024 151 132 134
-2.9314864577777429 -0.1958139210584474 -2.3054686318676780 125 85 75
-6.0601917352053460 -0.9509048486329439 1.7014814767422874 183 173 146
0.7312380198623255 -0.6122924265653883 10.7100562839542413 128 110 98
-4.5366746420382542 -0.6911464123989509 -0.4178612518365935 188 153 121
0.6875021802513708 0.8868926054185691 5.3726169884790558 100 31 0
-3.8252605333841521 -1.5457342965504393 -0.3878553392333461 135 99 75
-1.7603595555704219 0.5496003903679255 -0.3336453232081565 99 74 69
-1.6109612489333465 -1.6067566239593913 5.9875506690847384 66 29 10
-0.0533182976869980 -0.0886739972447425 5.9595165470714235 143 110 91
-0.4003274279674514 -1.6721463496573588 5.9759258446727763 68 27 0
-6.4959954897046570 0.8574871135379496 0.9027111061657044 85 41 4
-6.0742632670615322 -1.1201159573606778 -0.4269461171732004 97 55 15
0.8963108411149977 -0.3185048706003276 5.1697986370851110 58 48 46
-0.3968012876072476 -1.6779193170681594 5.9785830134246254 68 27 0
-3.7127002487254597 0.2138673659121562 5.6326507178787528 27 12 5
-0.0855799031494879 1.4229756848452644 5.0362331843019748 29 27 30
-4.5258479579656505 -2.0931642674236661 -1.4981336791240456 189 160 130
-0.9432799281756605 -0.0164093643771188 6.0202190504135737 105 73 50
-4.2460585886880020 -1.7654571688454685 5.9513393209114147 162 125 99
0.9715752856591872 0.3522593410731866 5.5925482956528159 47 43 44
-6.1751656018784962 -1.2178522252313595 4.5699893147632569 114 66 26
-1.6473060651710916 0.6085197965925668 5.5751158439973141 88 73 80
-2.2328057286493008 25.2094708292922078 3.9698370344538332 33 36 45
1.0735171540663171 -0.2187215184573400 3.7334000042702078 81 79 82
-4.2577607212041597 0.8984471392397083 5.9617546293339503 69 32 5
-0.4190169132950854 -0.5608847036933209 6.0537799343971974 90 64 47
-0.3397838699538538 1.4386150647994334 -0.0048659140393243 54 52 53
1.0368427363662980 -0.0576296062705712 5.5232570192823882 67 63 64
-1.9255802053121334 0.0359857362635262 5.9445611744464566 64 45 39
-3.8979020375563040 0.9867564788589471 -0.4420244298786135 112 66 40
-4.8039930588936590 0.9017948359696421 6.0063134518058501 117 64 24
1.0288530040778565 0.3317747112899933 5.7016452918783989 106 101 105
0.2575471534410835 1.3795193394323426 4.7417575395069376 34 36 35
1.4624811480727182 -1.3319860412729343 -1.1514659264587788 90 80 70
-5.8092158014675794 1.5768901248378790 5.3210944511049494 42 10 11
-2.0697713513420175 1.0485370592856496 5.5117199782221533 41 19 0
0.7097744968520031 -0.7341775182319363 2.2860559144977888 104 99 93
-1.6984288949985549 -0.9582249004929493 5.9676943716210413 126 106 99
-1.7878938595447902 0.0618169278529633 5.9408249578731640 87 58 62
-1.6094163902733665 -0.1203475186310280 5.8985521150484050 129 127 141
-3.5488855034323570 1.0691980490574307 5.1253538038038542 161 134 91
-0.9084046451035095 0.4264515713313466 6.0226674259239736 68 49 43
-0.7703725570485273 0.6047413848090272 6.0938328554926944 65 47 37
-1.9766180845838910 -1.5576089423791615 5.9910829125532761 106 72 60
0.8541628266495904 1.4623892766311681 -1.6611861607791008 98 89 82
-1.3657239532161125 -1.9735928472929443 6.0059454775966676 155 100 59
-3.3610640705254644 0.2139801664385193 6.0368530450593152 50 20 0
-2.0537184663533843 0.8021476083778175 -0.4212936660721109 77 48 30
-1.7214829475690867 1.1912481660982257 2.1505949477538788 226 224 246
-6.5263380505512130 -7.1521579494286502 -10.3575001019853747 174 163 171
0.3376515342209017 0.6996944388296358 5.9859624755169500 146 120 105
-1.6192790593570237 0.0824699837534812 6.0009862533417229 138 115 131
-3.6007173161649977 -0.1851420968641447 6.0373606623559271 109 69 33
-5.9621211497730133 -0.9922154445623762 5.9518970118059125 118 72 36
-1.9392285697235947 -0.0063264946966630 5.8543822438771098 34 16 16
-3.5565047470395683 1.1497362169650780 3.2480707883575155 54 48 32
-6.1859937298766257 1.1639529161041831 4.8187553498658673 128 97 66
-0.9388531089625753 0.6560541142806051 6.0205107075313382 131 111 102
1.0362411996489587 -1.5231089908587399 2.2260695451368004 108 94 83
1.0803378643797430 -1.5433477301437331 3.5709850383433728 111 95 82
-3.2904874502658386 0.9420881818045085 2.9145112992595537 187 203 226
0.2103154308707162 -0.1569746926608803 5.9761647685978616 133 110 102
-2.1937768643259172 0.8683403396927353 5.5154412452954622 120 92 70
-6.2957272367089843 -0.1312160143788507 3.0914668194685229 178 165 130
-0.3516663403547655 1.4271046571802628 1.7681371199242653 51 39 39
-4.3966499878514975 -3.0299523077178621 7.3498108144225265 137 102 82
-0.7984822505684004 0.6013790583367551 5.9990904144462505 143 119 109
0.0151175110307774 -0.7448407568592665 5.8919477954736532 157 117 81
-1.7788849367030328 -0.0235932581952804 5.6559789716188735 49 29 22
-0.2481535249726063 1.0721658931945839 4.0166474283556211 60 38 25
1.0333503685244025 0.0821783676663678 5.5007175924351959 113 108 114
-1.4687411309710696 -0.6028066909403280 6.0301796653815929 166 160 174
-0.3159917950863164 0.0999063634992171 6.0210000764664517 144 113 93
0.0510376370145306 -0.8093035677719728 5.8602827347592497 104 61 19
-2.0271369796309453 -1.1951774140782812 5.9479801205579070 97 69 55
-2.8974464925237209 -1.2111234674882414 -0.4102169920713517 167 140 123
-0.9129772600120503 -1.3119283929746137 5.9558734508426392 161 125 111
1.0824657367071413 -0.4891968800212084 0.2235443753134486 119 114 111
-1.4118274225031124 -0.4661440704721608 5.9658601703805116 101 88 98
-2.5825379875690690 -1.1948376852418789 -0.3947945179973787 184 155 151
-1.7334355333257967 -0.7183852279522824 5.9806522068821906 173 159 158
0.4163441019482714 -0.5679522814297883 5.9119454687558646 143 99 64
-1.8578696605220144 1.2258802089011183 2.7140649097048763 183 163 110
-6.0359679153330008 1.0838954500063367 1.1119040325704912 136 103 60
-0.2909406697837698 1.5553530665396076 0.5935752208259399 34 33 38
-6.2379628101580744 0.0868962479214353 5.7025195310149028 231 179 139
-0.9320278653116453 -0.4257048580347524 5.9693252093020117 139 114 92
-4.8265712821696871 -1.7119335905096207 -0.9706796084480203 97 56 24
-0.2072605659396243 0.0563768155953266 6.0551954198541722 100 59 37
-6.0677547461140522 0.6640091758290688 3.2941799523277022 118 82 46
-0.6212166761394003 0.3191075598149801 6.0401706952742398 79 49 25
-0.4029345327461021 0.9665123552844124 5.9560547578433489 99 57 15
-1.8359792426379071 -0.9987374457945959 5.9750882626549862 185 166 160
1.1570270178983597 -0.8044660315523590 2.7372796725698945 59 56 51
-0.9513077448035379 0.8070994347917805 6.0114289297610846 145 110 90
-0.0411264161876257 1.2377853303052881 6.1755552338845021 96 47 4
0.1412889888824158 -2.1733960925753064 4.6421160205731127 93 71 47
-6.2139087210157671 0.9983417801059969 4.1005536914537366 53 29 3
-1.4156563760972809 0.1932170813140404 5.7171116396833348 35 5 0
-0.9107402723331012 -1.0607113669404415 6.0438154189134741 136 104 66
1.0504823213135632 -0.5349471950840767 3.1246244111208270 59 51 49
-3.0404302100576359 0.3753236787692827 -0.4487648644121544 155 139 140
-1.6159391556388099 -0.1046601136882787 6.0084682987875118 146 132 119
-5.1890373925136215 1.1964780570868998 1.8917145484358269 79 42 0
-0.9723544164331053 -0.7138007850305575 5.9780995723681087 146 143 138
0.2843104321439808 0.3726411356650381 5.9006498800817173 80 44 8
-5.6439693214459119 -1.8383112998857056 -1.1909278601139077 118 66 26
-1.3517372482478127 -1.0405795175821386 5.9837148352217566 76 52 16
-1.9656224356878922 -2.1402112290379751 4.1602627798288339 118 97 68
1.0594808435758980 0.1296108150111670 1.9610596228050574 80 74 78
0.4398275348097843 1.6481964393758879 0.0557909616102183 35 32 39
-1.5270413068007740 -0.5764364400103132 6.0259382142031486 131 124 140
-0.8804287265600707 -0.6025091915106808 5.8600118985180494 140 136 137
1.0713785194294820 -0.6048118420369580 0.8972711128282889 65 57 55
-0.9206994920575065 -0.6885609087839750 5.9932218898524745 164 142 129
-3.1794499327672825 -2.1720540721422941 1.4644799764282781 173 153 146
-5.2910609769051797 -0.1839614929415304 6.0251219397048219 137 94 59
1.0864527172768239 -0.1608416798245504 0.4681859413153170 52 48 49
1.2358027899655351 -1.8481684991871339 1.6983733311466089 211 192 124
-0.7430436239206824 -0.8685083778628775 6.0606330826123482 142 123 106
0.1522892491164053 1.4918132242432829 -0.2265030373153535 53 54 58
-1.7164491796467796 -1.2934853112651945 5.9522319049776158 193 163 152
0.5547248630689304 -1.5700453309895155 2.0263138035983457 121 104 97
0.4732863402993448 -0.8928723182224807 5.9238211970979124 144 97 53
-1.3635068428703390 -0.0545059082221636 6.0126569629199986 75 64 72
-1.3754776086559453 -1.5502414007936374 5.9805822572281162 214 178 166
1.0376985985169009 0.3382110771402621 5.0791674691883983 126 125 130
0.3386832021362215 1.4510266383154806 4.7403171787445553 54 50 49
-2.5023120631786799 -2.6869994923960703 6.7766726127860171 55 20 0
-6.3768832810862541 -0.3346130762034584 -0.2017333605845541 200 149 120
-6.4047391843222510 -0.7015395092288341 5.9891496666185899 101 71 35
-2.4101945437007770 0.8231913057489867 5.5017863295574863 107 81 56
2.2419765781129177 4.1079374167605405 3.1459459252714779 29 28 33
-3.0825117328668976 -3.0165534441781152 7.2374945611457484 64 36 24
-5.0665822229512489 -1.1930944726174637 -0.4914157595397918 143 110 75
-11.9496139218498243 42.6182849111644941 -2.0481333094457046 153 135 111
-2.1405879334647246 1.1407772130058675 2.4639819301947155 72 41 49
-6.3549923494223686 -0.7961551190140931 3.5780669535886975 202 179 148
-2.0223099638665034 -1.1305071491888086 5.9785372312186258 188 161 152
-3.2177703225817820 -2.2804152860259759 14.2376462301884743 161 151 160
-1.5563102075724133 -0.2002947310445696 6.0153092155773473 103 85 73
-3.2643239643118758 -6.8378676123135325 10.1729852419941498 208 181 170
0.2852245070962265 1.3900928804550032 5.0905703712565140 34 33 31
1.0218998943700055 0.4776900801915148 2.5026122593976305 87 76 82
-0.7439410515273114 0.6633473265518525 6.0514530172223973 72 48 38
-5.5355612835433226 -2.1809134782155937 6.7073857441813036 234 190 151
1.0261793151131873 -1.3777827521071442 5.3034769793766232 69 57 45
1.0878028476567414 -0.9027165070689981 4.0617683435825986 62 52 50
-4.3855492733490955 1.2389473106636821 4.1040615944373657 154 126 87
0.9793191480124406 1.4756703175004371 4.9859722813523311 143 131 81
-0.5597848865264956 0.0171300090180731 6.0133766712056698 77 51 34
0.4240555773782443 -1.6404137426820702 -1.7518850891831887 87 70 63
0.9087091064657804 1.5959774384159582 0.6339126758921768 37 33 34
0.5616993297818577 -0.1815823909797925 5.9363935513122019 152 118 73
1.0498623606947799 -0.0912799083422955 2.0348489740024802 120 116 117
-0.1061226963063243 -0.0326140128993305 5.9451904064745689 135 93 51
-0.6330453684800896 -1.6298438304634726 6.0041340775722087 139 104 74
1.0679078706637803 -1.5303780308448980 2.8900170679420016 117 95 74
-4.1858943297297131 1.2482979968312859 2.1303760897934478 88 52 30
-4.6789367820021575 -2.6738656768392572 2.7729485696692979 140 111 77
-2.9182523637141911 0.5685223298847344 -0.4336096126585312 157 138 144
-0.0176856111968494 -0.3799222986027587 5.9519162561599659 103 58 25
-0.5678221521587052 -1.8442917067842630 6.1674981082453808 82 48 20
-4.8340607787426428 0.2006981643497744 5.9788247175153808 125 64 17
1.0706581610136388 -0.6112116070995285 0.8697045526422977 150 140 141
-1.2820843281391632 0.7745168577449042 5.5747560890687495 87 64 33
-1.5050119464609277 -0.7859483632367388 5.7120672344340893 158 138 127
-3.5802353575982750 -0.0072705597933783 6.0416822764305014 96 53 19
-5.6418042761309888 1.4504542720956652 4.6994241082909483 168 132 84
-0.0112513030006301 -0.7002480730766606 5.9022149143969926 84 45 16
1.0430466221890089 -1.7245239719021828 0.6394826292982253 253 234 201
-1.7464162541195822 -2.1041818607598675 3.8106602906581268 254 250 239
1.0805043018810356 -0.3196419756311160 4.5856217122875487 87 79 77
0.7843784769276375 -1.2481158300692139 5.9152410992899638 155 108 66
-2.2535139645867170 -1.5629014556545453 5.9593304386870223 148 96 46
0.0646473259656887 -0.9516153542372522 5.9537076044543245 97 62 32
0.8591803458634344 -0.9501492407510758 -1.1522305718652730 92 65 48
0.9544255925517454 1.4644120132954395 4.9295677079119473 136 114 75
1.0352910299910594 -1.1606021833714233 4.9060909907408101 100 87 79
-0.0153841989172945 -0.1115030484475304 5.9416886610213453 150 114 82
0.9572686971280649 -1.3012906977406422 5.0502516599802556 126 111 90
-5.3974620981472263 1.0858746109384376 3.9197201687522147 56 24 1
0.4418282126610364 1.4562134992356444 0.6423002591508221 52 50 51
0.7989588977026250 1.4285784916994255 2.9146842839031093 33 34 36
-3.8937411213635582 -0.5642727205750657 -0.4106668898942161 174 157 150
-4.0446330020347130 0.9632689980772067 5.3696062501180828 115 91 43
1.0556575232622905 -1.3937212892112540 3.0462067504229582 158 143 136
0.5696669701650974 -2.0452047997814309 4.6106438992314418 138 121 95
-2.0675462867137320 -2.4865018253581961 3.8898261393912428 211 227 250
-1.7183902678707321 -1.9705262453632473 6.4354018585556885 199 171 160
-2.5372671566499174 -2.1159236165195043 7.6196063799909641 8 0 6
0.1264753305727817 1.5893640366303390 1.8571588705635544 75 83 94
-1.5862611379126363 -1.7020971112355969 5.9606525088895053 204 168 134
0.6585562936823165 0.8553621863494812 3.3932675107455781 141 81 9
-0.0900359599244159 -1.0915778193415318 5.9249401817066678 167 123 78
-1.2859541261582526 0.7315782451168432 5.9770346525191664 91 53 17
-1.3993616801123976 0.0874109318455182 6.0220622547033607 61 47 64
-2.3563555300762942 1.1647007209164681 2.8143228323142253 177 155 105
1.1719660124998983 -0.9068922774148624 2.9522468891152851 116 108 105
-4.1098313800910340 1.0361915032318660 5.3058202462895467 73 40 5
-2.3242549458005537 0.6950860491933130 -0.3249965695221892 72 63 66
-0.4282198163108163 1.4997188194098983 3.5342433240827775 112 73 34
-2.2846485213751939 0.1821667548674668 5.9768607186874538 130 69 25
0.7956790438884310 3.9655739987437775 4.3828221982279718 72 61 67
1.0589520297041459 -0.6297501021475926 3.8481814154057687 68 63 60
-6.3254963667878954 -0.4534294317630143 3.0270313969828191 173 153 118
-1.3410570074009400 -1.5371676083055166 5.9654683385947065 203 163 155
-1.7577313032701798 -1.9804567208345876 6.2080915102688650 202 165 139
1.0564906186075580 -0.8674695637532239 4.6097667326705221 107 101 103
-5.0819494743005285 0.8815163752674436 3.5974609642852133 137 110 83
-3.4119183021077077 0.9749646005959254 -0.3319705181615112 133 82 37
0.3084870194681003 1.3497166046211451 5.7997905662009899 84 84 84
-3.7981306611792109 -1.3601427160628103 -0.4165777926847491 232 204 182
0.7158987951482592 -0.7998070661369072 -1.1363077057753883 69 44 24
-1.9068514938558592 -1.4536888751337955 5.9596665668274103 65 34 14
0.8078347811723392 -0.5746325330944725 -0.8158963667606081 71 30 8
-4.5010292190060426 0.8260906773620346 6.0657996734424948 131 94 65
-2.0970993898003183 1.1592804514849278 2.5924076581165791 57 38 42
-0.4740150297676188 1.3998422019475756 2.4155462366114144 122 92 56
-5.3720259292555088 0.2101593876173802 -5.2461831809018928 168 143 147
-1.5272633153473452 -0.1843112690029145 5.9915835001077147 90 76 75
-1.7927782898059739 0.0929652605000577 5.9291151595565506 142 133 136
-4.4253786758207152 -1.9558418730171467 6.0093210177921295 119 72 42
0.9535449911074821 0.1719049903450519 4.8411396849648218 51 46 52
-1.6658095603170804 -0.4908391009733921 6.0056194305769317 165 147 143
-1.8373053474923084 1.1403061439731159 2.8888056481747291 187 165 118
0.9945773651765101 0.0611266420002474 5.1472487121000459 45 43 46
1.1837902535668776 1.9005009609669337 0.4258915842896931 33 32 30
-2.2158692937956652 -0.3417086945543589 6.0360799598776573 110 85 78
-2.5291133666927101 -1.6457246479273369 5.9827449616216963 111 54 11
-0.1159612713693371 -0.5355938019382780 5.9231890092555313 155 108 62
1.0669013254124098 -1.2076982218068470 4.6135823900065223 85 75 66
-0.5172293495425225 0.2431742497418619 6.0495606875854850 134 110 82
-3.8450428571241000 0.8636567029513353 2.6998379629481262 30 11 4
-0.0599057593602958 0.1524646001016124 5.9129935357795560 145 104 82
-1.5421658235934406 -1.6434187483811928 -6.5181968363208878 171 159 173
-0.5528673912770335 0.3761705417795224 6.0309645187818770 57 23 0
-0.3184037373230468 -0.7090355461131862 5.9892313890404578 154 124 96
-0.8632582727578341 -0.3318579538238681 6.4732205864643966 114 83 62
-3.8238481992769620 0.6222007875203867 -0.3557032310882551 165 138 129
-1.5465959768889563 -1.3992432214810362 6.3356370933728208 175 159 136
-4.8756886058195583 -4.8676128596985437 9.2671442282962904 109 73 59
0.1663462724380199 1.4707851661847486 4.2287616006240913 63 64 69
0.2317896167508258 16.8191845583805915 -6.4361700485821896 141 112 72
-5.5532828979683906 0.1792736539533394 6.0980603871671377 131 104 87
-3.5053189884688827 2.8565564313988312 5.3005180212308511 178 150 113
-1.4086267230753853 1.2454035303532474 3.4458550831140440 181 171 122
0.8405247947216667 -0.5472575257761515 -0.9635620804023185 72 44 22
-0.0721588979688714 1.4530154366551247 1.9751231342039131 66 66 78
-3.2511967550741243 0.8594537863438003 2.9545044014419646 230 251 254
0.6809857834573412 -0.3743626833190384 5.9601227015716844 140 106 68
-1.4806951991578028 -1.9740880648698278 2.1628451728774971 186 193 219
-4.0283118640674678 0.2678077550430075 6.0869149235390951 92 62 36
0.3100606115870307 1.5298319682367831 0.1505006163728861 35 33 36
-3.3096367480336779 -0.1014028578967712 10.0176873075146755 162 137 167
-5.7601598380984020 -1.8778783077699852 6.0194853205236685 172 128 91
-4.2060196228349920 0.8757052681863947 5.4132111970756442 79 42 23
-0.5454365832721700 -1.7728241058806831 5.9734196900875913 74 38 12
0.6291269984700535 -1.5050928397960144 5.7784977808286655 121 78 33
-0.2747557457895485 -2.1433152471335979 2.4056952111935059 56 42 31
-2.6878263121682693 -2.0033477483275992 5.9204071200955175 95 45 12
-1.8704682014885619 -1.4546428791557082 5.9929520652787289 104 69 47
0.1514181187220633 1.5027651258438515 1.3769830014817526 62 65 70
0.0167155543220518 -1.8290094726404338 5.8423667552054850 124 74 25
0.6887284951588641 1.4701906379074900 2.9134581980301828 34 35 39
-2.1630525231658297 0.2865619078646599 -0.3757291998648712 195 167 163
-2.4603723495030674 -2.2722499013620672 -0.0153519914318960 156 129 108
-2.1542269018808153 1.1545859562000036 2.3966498453144318 174 145 163
1.0723281638502404 0.1117894168643340 0.8577800261518238 57 51 53
0.1226076721856838 -2.0965183351673771 4.5478146883961656 139 118 99
1.0630121895243176 -0.2480421524017987 5.1494432897903168 69 63 65
-2.5435726614042045 1.6612461471314981 12.7068570078682228 109 81 67
-1.3092466138612397 -1.5981142456306863 5.9630780476630409 224 178 145
-2.6903642605438809 -0.7396316871864389 -0.4433699546182854 179 163 164
0.0317384781347629 1.4090299759358702 4.3362700442096518 23 21 24
-3.1620114424449568 -1.3568332317293930 -0.4555513291630013 205 173 152
-5.2927415046283892 1.1076999524619060 3.4369934814415970 61 32 28
-0.8866047197811874 1.2282660401349317 2.9484899377590725 195 193 178
-0.3050406606952202 1.3142386406178326 1.3012995640857481 45 45 53
0.2446211080723753 1.4534912743879815 1.5846279184813463 80 80 78
1.0354641328401717 0.0592329027091578 5.1787904757864460 72 72 70
14.8577367318985658 -12.6102014036685439 6.9360925225334773 111 106 103
-5.9401573436992887 -1.5869552705535692 5.9526853809929294 53 0 0
0.9955247479072776 0.0371825461956551 5.9212008955542785 105 77 55
-0.1081639228350350 1.3958548789915597 4.4899594753983703 63 59 60
1.0680193384000012 -0.7922688181370038 4.5467886278757348 93 85 82
-0.5554504780253228 -0.1862965291657762 6.0116464402846450 92 62 28
0.9767265674323480 -1.4038916267054105 4.0319471060841527 123 102 83
-0.0567089026852987 -0.5632398527836570 5.9269724283685541 89 47 9
1.0616558161732546 -0.9291351578286642 0.6653938009162466 141 130 124
-1.7489588243331315 -0.4719003765818056 6.0033177527564758 73 55 67
-0.6574276741300940 -0.4847819477659161 5.9218996372756623 149 118 97
-2.5410741533932577 -1.7864468792337762 6.0190629271574512 131 90 58
-0.7738991523749025 -0.2530827311457115 5.9938944784293433 104 64 28
-0.5349904094017999 -2.2180542444237648 2.0082172002382559 130 118 104
-4.4528889793988995 -1.5766561571124009 5.9683150391288260 132 103 85
-0.5164341649281922 -1.5184368716499008 6.6602602142964686 64 46 32
-1.7434680452720857 -2.1240723123554162 6.7474532337920046 195 179 166
-2.4912527932279636 -1.6466939475823030 -0.3787046087914067 161 119 94
-3.5070909447102938 -1.8290471326650346 5.9947523262689941 115 72 40
0.6018732871193020 1.5323921615207590 3.8081186651971421 13 13 21
1.0972385402195042 0.1369546229475662 3.4077841818842454 129 124 130
-3.7971449979266265 0.9596643391692834 2.6488614026553052 248 255 236
-1.9491990308594354 1.1403861254185481 2.5793880656812243 61 31 29
-2.5478485568361018 0.1092354343306597 -0.3931995571838274 149 138 152
0.7431705443457348 1.5851772935254769 -0.8906066613034159 33 14 8
0.4568331451338207 -1.2059075975906821 5.9131936804220810 98 56 8
0.3607889016115832 0.4129614782255535 6.1548126373997638 143 116 95
-2.0246100552867343 -0.1937243782406234 -0.3862772004220597 172 162 153
-1.3911241504451917 -1.9557280173589346 5.8137124664475008 76 48 27
-1.5609328115610641 -1.7591943284964593 5.3413525395968060 255 246 250
1.0572914584971389 0.2878946551080816 4.8551917361914994 45 44 50
-3.1707385029192525 -0.0422785006612693 -0.4571439293448018 103 77 60
-0.7605775255834675 -1.5608537322731286 5.9617615494474956 79 44 14
-2.5249832861086849 -1.3108674399781395 3.9222225413835199 190 211 230
-3.3250764959171306 0.1530190694220352 5.1230630286505718 61 26 6
0.2259942714007358 1.5664963777493988 1.9817584991021369 26 29 36
-3.2686483181722439 0.6081373095604271 5.9596579707253756 22 8 0
-2.1748882215139718 -1.5442122963394902 5.9873090321170555 113 81 66
-0.0121669301881278 -1.0884014012089305 5.9677446584353646 147 116 72
-3.8590686918716397 0.8710998204092230 2.9225144457820469 33 27 27
0.2982256175579407 0.0652801615124825 4.7442410798093144 83 77 77
-3.3878868965602669 -1.4229739844251008 5.9214919132462756 119 61 15
0.8889896771151038 1.2386993622809868 4.8876899585722828 72 41 10
-3.0673050423089774 0.8533066016526216 5.5738939819688476 97 70 41
-4.0502032057414779 -0.6558187030956250 -0.3902233973754972 105 77 53
-1.8675612790106160 -1.6508981017668118 5.9950409827072146 138 104 76
-2.2323638278939821 1.3165988614510329 1.5832339576513463 100 82 94
-4.1837112890222601 -0.3545493281287316 5.9623259202538321 82 59 41
0.2753850158319921 1.4814013632917415 1.5147714134816135 29 28 33
-5.8406666760625834 0.9347569345401443 5.8921460463396231 111 67 32
-2.6710271453254140 0.2651034862497227 -0.4086657080881177 102 78 54
1.0739166130063196 -1.0236750913994594 0.6366321171541280 172 163 156
-6.2044830573985479 19.3635151278647051 -19.1877282871315806 150 138 148
1.0634059971836800 -0.0679151030810593 1.6345942070985562 80 74 78
-3.3719729536022638 0.3579896132829627 -0.4322985338128694 107 75 54
-2.0444358199465560 1.1516632767637323 3.3647486065276153 186 153 170
0.8938339723408332 -0.6720851987735077 -0.4544403237386407 57 52 49
1.1267035098394873 -1.4248969273732857 0.9544529794480573 110 96 83
-4.4251416436542605 -1.6069708308768285 6.2980403405985159 102 67 39
-0.6671988556967902 1.5714354751630071 4.3400729531929185 179 147 108
-5.4573267066302238 1.2327476128673815 6.2218051182125063 95 52 17
1.0103978854582634 -1.8518525942589712 5.7507227602279558 68 51 33
-2.1091770144231181 1.1806709578133854 3.2347687907390266 85 55 67
-17.8813154267373520 2.3533891413474204 20.4850910495940788 176 153 145
-0.8196658852195802 1.7919073128648915 -0.5733176681356114 138 107 63
-0.5868622076297310 -0.8457724937307340 5.0040202862496352 118 93 71
1.0219623560171414 -1.1434170666118388 4.4262336343065831 90 80 79
1.0359346718195717 -0.0508734231930514 4.1155728745778815 99 94 98
-4.4285865927914241 -0.3701318621482766 -0.3855944475114150 159 136 128
-3.0472405556498550 -0.7235488019922244 -3.3057740001469469 105 76 68
-3.8684722869085295 1.1420664715360982 4.4247773170694433 190 155 115
1.0868244800458589 0.3603261519106769 -0.1852363452238038 120 117 124
-0.6922376678458438 0.5593867907557507 4.2710770832727265 89 84 88
1.0193770538784126 -0.8092468227557412 2.6471913117023074 88 78 66
0.3956256704192909 1.5351626054535310 1.9350800874088430 54 55 60
-3.6741339470290426 2.9767344343962185 -2.7995800343709667 80 66 66
-5.5585944864030150 -0.9949644701549932 0.0989033347754156 240 194 144
1.6610987899392309 5.1996134614788359 4.3243659785654085 101 86 81
-0.0213618638809729 1.4211543492661065 -0.5852750220210279 30 31 33
1.0903194198881869 1.1421448501683604 1.5364195143077810 146 118 79
-4.2768693273682734 1.0522605546328949 3.1658165012837274 87 45 31
0.7505425919675541 1.4651524385622463 4.5811518747484739 93 78 47
-2.0456131594498577 1.1678305293231728 3.3849204784901441 72 19 39
-0.9630061790527007 -2.0192781020179953 -0.4739189626972969 90 54 22
1.0223495558735693 0.7203255592691783 3.3590968694326859 51 47 61
1.0796495704560241 -0.4519381530454654 -0.6828975279069809 33 31 32
-6.3246147944341482 1.2547454342789126 1.8199579224845002 136 112 74
-3.8693256029938983 0.9539581213508003 3.3460219538936711 61 38 32
-0.0638172244770394 1.4698540688063206 -0.2012776674725065 23 24 29
-0.0588669458252736 1.4472314650900884 3.8849813475054358 37 36 42
-0.5864443618969716 -0.6817149213360574 5.9811200518864389 136 109 88
0.2725754832705698 1.5018864811981325 5.0432597997435993 43 42 38
0.7432196217692704 0.8062886277723355 5.0594222005907463 108 45 1
0.4533327364975800 0.8191634395168514 6.0061812404679946 153 114 85
-2.9846385336281136 -1.4326191742652690 -0.4357081322536253 199 169 145
-2.9016302108718115 0.5238489552222544 5.6411382743098919 66 39 22
-1.5674876131870963 0.9915387928692865 5.5060788372790066 66 39 30
0.6340543403049526 -2.3221770048443697 5.2344380048980756 128 113 90
-3.7898361147104218 0.7819344834804368 2.7521294876657882 23 7 8
-0.2181430798294110 -0.7815154910878150 5.9521392735548373 127 82 41
1.0704993052850516 -1.6222472833533716 5.6118017301843066 98 81 55
-0.0973067259908416 -0.4954654668414764 5.8764250600931192 154 127 100
-5.1327816819053007 -0.0884921504983107 -0.4520758228858243 164 137 120
0.2993735206830207 1.6519088107457407 1.8824425918219949 35 34 40
-3.0049923403862411 -0.2411377522595055 -0.3973342953613412 168 156 180
-4.7142608024267698 -1.3840146677584586 6.0087836788327991 112 77 55
-5.8161285066582176 -1.4112169059125841 6.0024293469428374 186 145 101
1.0562576117085554 -0.7857021754783615 5.2113208523566721 81 72 65
-0.2124584812611448 1.4275959219376304 1.9276899925143309 76 71 75
-5.0850886597128326 -0.2072128341716141 -0.4453970515730010 109 73 47
-0.9221695391398975 -0.1165027206209159 1.4822547396336279 57 57 57
-1.2380434216981835 1.4575766627029132 4.1952964853245049 177 171 137
-0.9156058378818287 -1.5623988483087288 5.9506088698963175 93 62 41
1.0494993831201553 0.2534227022385104 3.1140164362488498 137 131 141
1.0916539588146492 -0.6896205254735748 3.7834714118005430 95 85 83
-0.0522481492561535 1.4628306063147394 1.5684263612882974 43 43 53
-0.1204444264738050 -3.0347475840012677 2.7252721183786521 129 115 104
1.0595061564425046 -0.5702785622632470 3.0228051061978070 68 59 60
-1.5013595230391075 -0.6577964897884871 5.9978471129840703 163 151 153
-0.6408350794512521 -0.4116911998650787 6.0254330285748123 108 89 72
-0.3995534099212713 -1.3740222827839987 5.9055469352287391 95 64 36
-0.7021392743580651 -2.0532941544596559 3.5426501621421305 125 114 96
-3.2790734493832172 -0.3669022301881817 -0.4805016850088425 102 77 46
-2.3447660468367411 -1.1098868140716154 5.9643750492980105 144 96 50
-1.9853407818303843 0.1335349908590264 5.5252815845745733 101 65 41
-0.5488309851977683 1.2942387103245196 3.1452944721232772 194 162 123
-0.3202443450989710 -0.3843167777802397 6.1065792709630600 87 62 40
-1.7668879184392572 1.2795353044599209 5.1818380759348353 168 138 104
-0.1476769537430486 1.7876231648521645 5.0472065792176890 163 127 75
-0.6904898174348458 0.4725103340047882 5.2636375861772793 15 16 20
0.6060541406557888 1.5130083718880221 2.1609599812926596 24 22 33
-3.4587547499601801 -1.8245660069867131 5.9635447206240526 137 73 27
-3.7963258564177198 0.8363706065330130 5.5379100928702458 59 26 7
1.0583654071135571 0.0386483054293665 4.8628078203480527 63 59 60
1.0764107447508753 -0.6120673476504862 2.6209333163655546 79 73 73
-2.6022854755121791 -2.1398317686770878 0.1606442296867091 175 151 139
-0.7073157361512824 0.7113714197968767 4.1564411399767778 113 91 94
-5.8566385482374201 -0.3081989316422686 6.0137510754734418 127 114 108
-3.6542364294896603 -3.6472361691672508 10.4639972571149649 165 149 162
-3.8591664381820303 -0.2534983250568134 -0.3575797845586556 83 57 40
-5.7442833595786409 -2.0453998855550943 5.5089624262329870 129 96 55
0.9800603564177740 0.1410033568956945 2.6353256537607250 63 58 64
0.5579334146360888 1.5245758782355672 4.2433755836101126 19 19 21
-1.6411466614806605 1.3299715495255939 2.4450867290726985 142 120 71
-2.1779342068857210 1.1432020636811859 3.3249226760164978 191 160 175
-4.1147128267000816 0.6916128290238420 6.0445174097781775 62 35 24
0.4569189251271639 -2.0222898405713092 5.1815735540397094 139 106 125
-2.8783850907203918 -0.6026233778503618 -0.4235678276553396 187 169 181
1.0301225037899073 0.3518972797862176 5.2768016792952963 115 114 119
0.1726273561721415 -2.0548907699624444 0.0988379227686264 158 137 118
-2.9419027308654058 0.8767827209740902 -0.3679054919201414 121 75 60
-3.1440476135544748 -1.1673761190021881 6.1960487147854044 123 112 118
-5.1505897496612771 -1.5227658071766992 6.0558844809378778 143 89 42
0.4519053745774996 -1.9499951713167623 5.2171509890305856 144 121 103
1.0821290931980594 -0.7979466793215330 3.8583905749139062 123 114 115
-1.9059229374569506 0.3488324966345825 5.9547950949427779 73 51 37
1.1011935238911816 0.3567328763099335 3.3445606128828897 135 130 136
1.0900534236336605 -0.8199150409879996 5.1551024954106941 56 48 45
0.4201313017927270 -0.2340319655168855 6.0034957619386020 103 67 41
1.0507047885028458 -0.9341086224249086 4.9140396799757315 98 87 81
-0.9179136445709311 0.9261206733857876 4.6141213407948891 208 176 135
1.3626372372644535 -1.4581585000774799 2.8404778101711918 107 94 86
-0.6678075340763815 -1.9515513494674304 -0.5034156325735313 92 62 36
-3.5105660747812117 1.0551419919761642 4.0030690436839764 202 214 210
0.4457384710003312 1.4858676670007640 2.8212211377033944 15 18 27
1.1661917553647576 -1.5345398138020563 3.7135954199098311 152 134 122
1.0401810225892163 0.8666312994634449 3.7601405582821883 100 96 97
-4.1921852520766878 1.0424108812874009 5.2469124984446864 123 105 55
1.0782653193932681 -1.8829838005475752 4.0001703415497287 123 100 58
0.0893608971600193 1.4575607842725697 2.0013422945059527 71 72 76
-0.1212138903132725 -0.2553774043594335 5.9357566583600585 155 105 46
0.8439129156472333 -0.7429961895914874 3.6795669254802581 139 134 131
-4.3986577719914477 -0.1301136759961162 -0.4362689829763770 104 69 47
-2.2201042782810529 1.0310030140427306 3.4221814248698879 93 36 55
0.0715090042004855 0.6813275138373005 5.9772377464095507 105 78 51
-0.8661579237769470 1.2939020499110880 0.8471703448373908 172 144 107
1.0708215504948082 0.3898972408693260 2.0075620263638068 65 61 62
-2.8685742755208476 -0.8377310809385038 5.8727831385319877 111 97 94
-6.3912097033032689 -1.2564545391324609 4.2292720547010685 227 208 149
-0.9191193406754472 -1.0487674245517868 6.0963425647957878 106 83 69
0.9896759301360334 -0.4567368650703074 5.0817683331294701 58 48 47
0.2374171461161388 1.5256276067048458 2.8038675420445083 36 37 42
-0.1547222445124397 1.4731118850572116 4.7905573480538219 32 31 36
-4.2296886370022815 -1.3453606292676117 -0.3864418943797197 141 106 84
-0.1235090109017556 -1.3657060805411108 6.0885376362866968 132 92 40
1.0711332410048215 0.1644570583365978 2.7490861822650210 62 61 66
0.4933028790909796 0.1982102897399388 5.7956560172116660 99 72 55
0.1030783226349279 1.5233460485803769 4.3980398195224186 23 21 24
-0.6922741356679957 -0.3793980123299999 6.0578264480604931 144 111 104
-0.0186202413014793 1.4615236418964166 3.9833684957432505 30 29 35
-5.1582830371573349 1.2735972490539480 5.2154462763058778 158 120 71
-0.7389009428977493 1.1272388807063778 3.3984803259875704 179 150 108
-5.2863378936078407 1.1274084526580634 3.7888099680767549 60 32 31
1.8526179797280775 1.3805367208383788 4.6069322596689863 97 67 31
0.2402469547290517 1.3536901635933922 2.1574393254526854 51 51 51
-0.4405600997848164 -1.7619885321292617 6.0083751485523988 95 60 30
-4.2384376814833065 0.6985407787657575 3.8484808082317570 69 38 20
-0.0001918585674207 1.5250791284618561 2.9896549345851389 48 48 56
0.2605928108581840 1.5546561790560292 4.3687624822319577 27 27 29
-2.0905089939932702 -2.0146470051968297 1.5268140347319892 120 106 97
-1.4484322001668681 -0.2130392706377401 6.0038326708312741 152 137 140
-0.3558095263876336 1.2542940771703350 5.6337984267031791 19 11 9
0.2830337559918147 0.2443897519757634 5.9356574002256366 125 93 70
-2.3741378398382937 -2.1553849750134249 6.5735714570666079 93 60 29
-5.2740151109661930 1.5441186618633913 0.8286328098676516 156 119 75
1.0502014194229106 -0.1404290684891462 5.6758093335083304 45 39 39
-0.2883432410973616 1.4643966915589950 3.8205786246530051 61 46 39
0.7564313021929118 0.7560275361160066 6.0137848155041400 161 127 100
-1.0224017333637700 0.1428498455686148 5.6607750402689350 72 50 37
-0.6830436714549551 0.5987766184339903 5.4392075799415975 99 54 12
-4.4393945876122798 -1.2817739118421938 5.9737137691981372 155 127 115
-6.1546161293349746 0.0361042890188297 3.0021435282802416 187 162 121
1.0672202590613671 -0.0103040022701927 3.9288932007625044 108 108 110
1.0347597884064155 -0.2298394241851004 5.6992000077789964 119 110 113
-1.7424444525534291 -0.0078309514478119 5.6195038129389694 30 11 7
-5.3986849297151789 -2.1704711825911907 -0.3966124631809138 134 96 60
-0.9816974326671186 -0.6378942637329912 6.0758300224042303 147 130 114
-2.1549707056079912 -0.2459919746993005 6.0399514977194277 132 115 108
1.0802378387615363 -1.3176141107266395 -0.3362735395463475 107 97 88
0.8381252885726028 1.6360999060539685 -0.0309712708258683 39 33 35
-0.8591614008318850 -1.7382567795949073 -0.3960474774846555 147 115 76
-5.4940138677668484 0.7490263605673818 -0.4875690967327373 159 127 106
-0.0242487659832764 0.8219292733404251 5.9916679300692994 97 62 30
0.3365005251270212 1.4682248704782648 5.3468047405053856 18 16 17
-2.9830355344223722 -0.3360033569998319 2.8748012219144670 114 87 68
-0.1401946294584438 1.4503371083253704 0.9394150212320266 93 101 112
-0.0376833421280324 -0.7792704506973673 6.1187531963610757 127 67 5
0.2361642727519807 0.0101377187149995 5.9760008161358069 143 123 114
-3.7818443471463818 -0.6602111643237654 -0.4135980806966293 176 158 156
1.0924692045277844 -0.3063923572812450 -0.2308453425422242 55 49 51
0.2005537297313520 1.6395141501807973 5.6780206594240124 27 25 26
0.9097339358018615 -0.4114171700390878 5.9254006770145518 114 61 21
-0.7518215482915463 0.5590054458251800 5.9845126951988616 82 55 46
-0.7330682193413219 1.2159053147902494 3.3948869548449836 191 163 124
1.0646494619010105 -1.6503310208470174 2.3105021449612209 116 99 79
1.0288994966742131 0.2774467383992422 3.3920014745926452 108 103 107
1.0770833316452328 -0.3308321498466473 1.0797939918526818 75 69 69
-4.3555800112969587 -1.5393474115693704 -0.4127419761683776 93 51 11
0.7642347367842505 -1.0297042945343533 5.9559257362782185 78 35 1
-2.5399587076689802 0.3105532070396059 -0.3792379773375314 85 60 63
0.8144826962779808 0.8261055715017074 5.0457539529701609 113 49 5
-3.9416943134462441 0.8317591219744547 3.3107639318167372 40 20 13
-0.7065465867487440 -0.6942944820116355 6.0133973026931216 174 148 121
1.0686094541980076 -0.6207473645392674 2.8414979232245914 152 146 148
-4.0526880199471904 0.8029294941186331 3.7417914776069243 34 8 0
-0.8496403534583626 0.2960970243647123 4.0620893974341001 71 62 67
-0.7798340045276662 1.1779834412617463 3.9060952514778799 210 189 158
0.3165862852333563 1.4256531218794044 5.5106152086816813 23 21 22
0.1035878647370641 1.5036189773419342 2.5621015725313425 28 29 34
-0.1955338930824373 1.3889684905612569 1.6453306871152258 72 80 83
-0.2775849967966391 -0.3075567783105331 5.4105328312208680 180 161 154
0.9331413133119788 0.6157061337580008 5.8946647252769466 104 70 58
1.0182833034335896 0.3962516639733580 4.9861621297603262 58 53 57
1.0729000291306749 -1.5744691649857900 4.3833912014856731 98 80 66
0.2058098319946160 1.5122991889305581 1.4002179744378207 26 29 34
0.4493697645171845 1.4268964207737467 2.2214154702598474 32 33 35
1.0583346233159310 0.1769872577963536 3.7056635012747887 45 40 44
1.0115644740334289 0.8098874928649872 5.5236119539245507 99 97 108
-0.3083830976455756 -2.2770423871582839 2.7698347522168967 86 74 60
1.0593129095889908 -0.0359293156680839 4.1653589119659618 69 64 68
-6.2635948036587026 -0.3333509337886978 2.7107744701073604 186 156 122
-1.8951879612872549 0.0237993907385225 5.5738515835881230 58 38 31
1.0692681941729365 -0.2320686543681345 2.1470621004218611 67 61 63
-0.0504855498987933 0.2669591653858856 5.9710160246845891 144 108 82
-5.5705400687036484 1.1712297952198667 4.5282068012744734 135 96 39
0.0179960617409477 1.5210024840365048 5.9762475865377152 32 24 21
-3.2447886967163422 1.5216184011451905 -1.6590641044627670 147 100 58
0.3519311286819674 1.4148278749493619 4.9230086281857544 64 63 61
-6.3120003813621901 7.0645769425731073 -4.7441309379428045 71 41 51
0.6824093889743692 1.3387346526815873 5.6275871879326287 72 67 61
-6.2721271990871736 1.3350811577870318 0.8142782851106418 125 93 55
1.2591951332177356 0.4558178477848695 2.3853891012069610 97 91 95
-4.4871877915504941 -0.7586172761337371 -0.4627681254485586 190 158 143
-1.4146246678778229 0.1108787026898800 5.4351522758888544 150 131 114
-3.9858884931937602 0.0842825408543063 5.9223296412221034 45 9 0
-0.2651993870180359 0.3206097468443227 6.0146111237191757 98 69 55
